# .PCD v0.7 - Point Cloud Data file format
VERSION 0.7
FIELDS x y z
SIZE 4 4 4
TYPE F F F
COUNT 1 1 1
WIDTH 1448
HEIGHT 1
VIEWPOINT 0 0 0 1 0 0 0
POINTS 1448
DATA ascii
-0.47541597 0.25272462 0.80227691
-0.46435961 0.2536273 0.80260402
-0.45585853 0.25353208 0.80383205
-0.44449541 0.25260356 0.80173314
-0.43456581 0.2519106 0.80234879
-0.4251675 0.25154573 0.80253381
-0.41411242 0.25315887 0.80245155
-0.4049269 0.25388104 0.80333954
-0.39500523 0.25462273 0.8027932
-0.38634005 0.25672576 0.80614281
-0.37877411 0.25881976 0.80719995
-1.3466582 0.2681286 0.80945015
-1.335892 0.26801738 0.80402166
-1.2214714 0.26540467 0.80039716
-1.2148516 0.26461622 0.80301422
-1.204505 0.26667085 0.80629176
-1.1949974 0.26782298 0.8077805
-1.1756513 0.26003706 0.80935597
-1.1616632 0.26183063 0.8085075
-1.1552079 0.26412627 0.80666673
-1.1446549 0.26662612 0.80629981
-1.1342378 0.26949754 0.80559683
-1.1245233 0.26582667 0.80765349
-1.1146932 0.2652446 0.80298716
-1.1040899 0.26456374 0.80536878
-1.0943846 0.26487908 0.80529624
-1.0854571 0.26330727 0.80530006
-1.0774367 0.26360574 0.8007803
-0.95367897 0.26495323 0.80311769
-0.9447636 0.26478729 0.80192024
-0.93517065 0.26395994 0.80359703
-0.92594773 0.2626985 0.80668604
-0.91339493 0.26190057 0.8064335
-0.90425611 0.26454389 0.80833912
-0.89471626 0.26373926 0.80298603
-0.8812148 0.26190767 0.80284524
-0.87559718 0.26434967 0.80186331
-0.86387604 0.26475534 0.80416387
-0.85639095 0.26382634 0.80519068
-0.84760076 0.26296797 0.80136967
-0.73434538 0.26234466 0.80346411
-0.72508758 0.26216954 0.80261391
-0.71223032 0.26104602 0.80105197
-0.70384812 0.26169077 0.80267811
-0.69576472 0.26189795 0.80574375
-0.68520916 0.2621448 0.8022663
-0.67345053 0.2615023 0.80168581
-0.66773176 0.2628051 0.8016963
-0.65639675 0.26123828 0.80127823
-0.64352351 0.26277024 0.80113971
-0.6366567 0.26109341 0.80349207
-0.62631184 0.26321366 0.80143553
-0.61382079 0.26212844 0.80135912
-0.60377705 0.26301825 0.80308652
-0.59514469 0.2637383 0.80425334
-0.58912379 0.26326647 0.80930948
-0.46196848 0.26038998 0.80119997
-0.41200215 0.26002741 0.80129027
-0.40075496 0.26038998 0.80119997
-0.39325947 0.26305556 0.80128419
-0.38529179 0.2649771 0.80272442
-0.37550262 0.26498151 0.80562216
-2.0027108 0.2783196 0.80810988
-1.539957 0.27868643 0.8085742
-1.5248485 0.27905047 0.80980372
-1.5042311 0.27931738 0.80902171
-1.4917475 0.27845046 0.80801356
-1.4849749 0.27938953 0.80767554
-1.4786118 0.27902141 0.8089928
-1.4663817 0.27681822 0.80713868
-1.4568354 0.27586362 0.80778646
-1.4454346 0.27660263 0.80595309
-1.435058 0.27404788 0.80593842
-1.4248358 0.27567694 0.80463725
-1.414415 0.27644822 0.80558902
-1.4050515 0.27552426 0.80715269
-1.3950809 0.27656007 0.80625904
-1.3855757 0.27510238 0.80751634
-1.3753375 0.27638832 0.80577564
-1.3653146 0.27521926 0.80560648
-1.3539724 0.27480578 0.80582714
-1.3457527 0.27547649 0.80404776
-1.3345364 0.27512938 0.80257684
-1.3268076 0.27353981 0.80549085
-1.213906 0.27402395 0.80358058
-1.2052311 0.27635735 0.80680668
-1.1969694 0.27315694 0.80394411
-1.1848776 0.27344614 0.80807877
-1.1782625 0.27385509 0.80827814
-1.1424819 0.27280718 0.80311728
-1.1353596 0.27541259 0.80463439
-1.1244237 0.27586618 0.80542898
-1.1134737 0.27529511 0.80489427
-1.1054568 0.2748895 0.80556798
-1.0982181 0.27714351 0.80732453
-0.94769377 0.27043587 0.80189073
-0.89421731 0.27106231 0.80060035
-0.863855 0.27295968 0.80442208
-0.85822123 0.2728413 0.80931348
-0.79159087 0.2789056 0.80933475
-0.78627461 0.27931786 0.80825186
-0.77991682 0.27972364 0.80794668
-0.71087635 0.27820382 0.80928856
-0.70691323 0.27888414 0.8096723
-0.38216445 0.27298263 0.80158782
-0.37780684 0.27378073 0.80385226
-2.0162325 0.28660855 0.80656409
-2.0028365 0.2852391 0.8073101
-1.9833505 0.28947183 0.80889791
-1.9666042 0.28710687 0.80886495
-1.951058 0.28707477 0.80794865
-1.9483819 0.28772676 0.80987883
-1.9351494 0.2873987 0.80851847
-1.9184237 0.28768086 0.80845028
-1.9026575 0.28519997 0.80769783
-1.892095 0.28923258 0.8039003
-1.8876375 0.28535837 0.80762136
-1.8736216 0.28487322 0.8068614
-1.8639525 0.2873669 0.80631012
-1.8569647 0.28709421 0.80779588
-1.834169 0.28762916 0.8057211
-1.814153 0.28641129 0.80575716
-1.8046703 0.28630969 0.80533147
-1.7962719 0.28682297 0.8077895
-1.7832915 0.28771862 0.805866
-1.7753918 0.28614146 0.80628747
-1.7657541 0.28620279 0.8078385
-1.7539244 0.28594542 0.80667621
-1.7419599 0.28823903 0.80410242
-1.7373329 0.2844947 0.80793655
-1.7242472 0.28546607 0.80733544
-1.7138073 0.28771138 0.80488092
-1.7090687 0.28606391 0.80858439
-1.6965128 0.28463227 0.80683196
-1.6856974 0.2876626 0.80457723
-1.67723 0.28779835 0.80086613
-1.6678696 0.28777829 0.80785197
-1.6536137 0.286998 0.80830258
-1.6424242 0.2866798 0.806669
-1.6353163 0.28518611 0.80711722
-1.6258228 0.28494883 0.8067134
-1.6138566 0.28638297 0.80522984
-1.6038191 0.28837684 0.8065064
-1.5873604 0.28933311 0.80842346
-1.5736666 0.28779197 0.80798781
-1.5661787 0.28663486 0.8087002
-1.5543568 0.28668204 0.80577755
-1.5460926 0.28668171 0.8066566
-1.5354517 0.28532943 0.80664283
-1.5248913 0.28380272 0.80370671
-1.5141163 0.28303963 0.80388308
-1.5050908 0.28384855 0.80411029
-1.495452 0.28376964 0.80464888
-1.4854333 0.28431752 0.80443078
-1.47525 0.28395781 0.80514312
-1.4641833 0.28541479 0.80427241
-1.4545956 0.28378123 0.80459774
-1.4455736 0.2843872 0.80186957
-1.4385303 0.2804288 0.80345201
-1.4235172 0.28213882 0.80180854
-1.4158598 0.28301933 0.8025558
-1.4062507 0.28391686 0.8020981
-1.3942504 0.28179419 0.80256724
-1.3866143 0.28187954 0.80142665
-1.3731487 0.28324375 0.80189216
-1.3643345 0.28484604 0.80402833
-1.3557864 0.28577265 0.80679756
-1.3437791 0.28219402 0.80473852
-1.3356196 0.28047591 0.80712086
-1.2125589 0.28316361 0.8017692
-1.2061993 0.28215244 0.8066172
-1.1983672 0.28304854 0.80611002
-1.1324272 0.28109857 0.80142713
-1.124091 0.28011039 0.8002367
-1.1037863 0.28036731 0.80284113
-1.0972103 0.28192157 0.80132967
-0.80218059 0.2829861 0.8097803
-0.7944383 0.2829175 0.80492318
-0.78512925 0.28426 0.80418384
-0.77498811 0.28409234 0.80563134
-0.76469719 0.28502628 0.80411416
-0.75454706 0.28553548 0.8044818
-0.74458683 0.28583527 0.8048743
-0.73573214 0.28668895 0.80557388
-0.72476643 0.28647351 0.80581313
-0.71454185 0.28480947 0.80633473
-0.70500869 0.28538698 0.80629188
-0.6949293 0.28565511 0.80571699
-0.68510264 0.28566715 0.80483383
-0.67474812 0.2856999 0.80434936
-0.66542089 0.28601989 0.80716884
-0.65505904 0.28595951 0.80620241
-0.64496499 0.28529224 0.80550134
-0.63564652 0.28560048 0.80601346
-0.62490094 0.28628913 0.80593961
-0.61740309 0.28795823 0.80742913
-0.38216946 0.28540003 0.8035748
-0.37671247 0.28589821 0.80565053
-0.36533302 0.28811362 0.80682498
-0.3550289 0.28747737 0.80710912
-0.3456786 0.28797442 0.80807495
-0.33491105 0.28719744 0.80760002
-0.32580873 0.28824335 0.80777138
-0.31554192 0.2875343 0.80742216
-0.30464411 0.2885161 0.80797774
-0.29613158 0.2890307 0.80819994
-0.28701261 0.28929174 0.80820006
-0.27450663 0.28929174 0.8082
-0.26981688 0.28929174 0.8082
-0.2455865 0.28929174 0.8082
-3.4025004 0.29781449 0.80252361
-3.3971965 0.29538986 0.80672818
-3.3689322 0.29577029 0.80123842
-2.0153136 0.29605329 0.80836815
-2.0056701 0.29587471 0.80411023
-1.9938822 0.29459611 0.80469006
-1.98563 0.29446384 0.80668765
-1.972158 0.29530251 0.8038848
-1.9682887 0.2930623 0.80700028
-1.9564674 0.29386109 0.80322009
-1.9430761 0.29428828 0.80190116
-1.9385467 0.29035139 0.80568248
-1.9255563 0.29388025 0.80249596
-1.9107614 0.29444164 0.80070835
-1.9057115 0.29151788 0.80477446
-1.893604 0.29382506 0.80230564
-1.8844373 0.2924262 0.80365431
-1.8770336 0.2940774 0.80337656
-1.8631628 0.29356402 0.80251122
-1.8550432 0.29250121 0.80579841
-1.8457952 0.2948451 0.80382144
-1.8340588 0.29541883 0.80125284
-1.8207622 0.29032782 0.80042648
-1.8169295 0.29126158 0.80319065
-1.8052994 0.2918404 0.80054224
-1.7954121 0.29512236 0.80687058
-1.7886674 0.29239118 0.80137813
-1.77213 0.29139441 0.80255175
-1.7608776 0.29491448 0.80057311
-1.7567445 0.29236707 0.80391681
-1.7443842 0.29554978 0.80389392
-1.7338567 0.29449359 0.80468816
-1.7246014 0.29632071 0.80538958
-1.7149981 0.29566541 0.80348939
-1.7039223 0.29512796 0.80503225
-1.6947558 0.29782739 0.80690897
-1.6836653 0.29756644 0.80673993
-1.675315 0.29512686 0.80414134
-1.6634685 0.29497787 0.80419844
-1.6556889 0.29402515 0.80642056
-1.6460274 0.29652345 0.80338776
-1.6347357 0.29524541 0.80605298
-1.6251278 0.29582056 0.8038308
-1.613603 0.29701021 0.80480248
-1.6055272 0.29506963 0.80482316
-1.5943431 0.29558122 0.80599111
-1.5851182 0.29460046 0.80585563
-1.5749755 0.2940107 0.80578351
-1.5646935 0.29582286 0.80481821
-1.5561192 0.29337931 0.80574262
-1.5453205 0.2952041 0.80215091
-1.539248 0.29199973 0.80435377
-1.5284159 0.2908743 0.80057865
-1.5095652 0.29066637 0.80040002
-1.4881897 0.29182315 0.80094522
-1.463118 0.29160732 0.80163395
-1.4577973 0.29005948 0.80357665
-1.3646746 0.29459009 0.80553412
-1.3569336 0.291374 0.80663049
-0.77009666 0.29128683 0.80007255
-0.75767958 0.29084346 0.80061924
-0.74458832 0.2917465 0.80153167
-0.73582286 0.29085678 0.80148578
-0.72486955 0.29139802 0.80083984
-0.71573436 0.29142216 0.80163234
-0.70476544 0.29159513 0.80185837
-0.69629693 0.29132837 0.80105048
-0.67311811 0.29090357 0.80211347
-0.6673696 0.29185352 0.80255002
-0.65578032 0.291035 0.80126548
-0.64574689 0.29062057 0.80103236
-0.6344474 0.29090598 0.80067092
-0.62418842 0.29247054 0.80148876
-0.6177898 0.29371557 0.80395287
-0.38135484 0.29215038 0.80296308
-0.37555215 0.29440427 0.80433887
-0.36521986 0.2924858 0.80323678
-0.35422081 0.29248992 0.8034187
-0.34470117 0.29354706 0.80376107
-0.33482897 0.29328063 0.80270016
-0.32519278 0.29280469 0.80322391
-0.31490204 0.2936089 0.80329531
-0.30512139 0.29406369 0.8041389
-0.29486632 0.29461208 0.80351257
-0.2848509 0.29420772 0.80346942
-0.27492654 0.29502952 0.80416179
-0.26524314 0.29516289 0.8053962
-0.25508782 0.29520121 0.80479634
-0.24496578 0.29481331 0.8043201
-0.23479272 0.29499704 0.80429077
-0.22494666 0.29550678 0.80530208
-0.21505265 0.29593199 0.80596757
-0.20505756 0.2955763 0.80593604
-0.19523792 0.29657462 0.80603731
-0.18461482 0.29822648 0.80742216
-0.17554331 0.29830813 0.80643529
-0.16494766 0.29757491 0.80756003
-0.15570247 0.29756117 0.80680883
-0.14521651 0.29796439 0.8069827
-0.1359203 0.29840073 0.80794996
-3.4020135 0.30722529 0.80192626
-3.3943205 0.30600214 0.80779082
-2.0941563 0.30725446 0.80614084
-2.0877624 0.30748594 0.80931735
-2.0742133 0.30962446 0.80513978
-2.0360107 0.30938458 0.80893779
-2.0234294 0.30836982 0.80466986
-2.0149376 0.30419824 0.80655664
-2.0031729 0.30721897 0.80290747
-1.9949607 0.30418023 0.80416363
-1.9849731 0.30526176 0.80435431
-1.9746816 0.3044787 0.80436826
-1.9635324 0.30443788 0.80440301
-1.9545695 0.30682647 0.8029319
-1.9455352 0.30595425 0.80593187
-1.9375179 0.30434197 0.80865383
-1.9238161 0.30694547 0.80428189
-1.9157763 0.30594683 0.80696756
-1.9061129 0.30638546 0.80639005
-1.8949153 0.30700812 0.80629832
-1.8845644 0.30580816 0.80412883
-1.8758036 0.30438602 0.80426836
-1.8622217 0.3065531 0.80361253
-1.8547434 0.3074705 0.80352002
-1.844226 0.30442962 0.80623442
-1.835861 0.3052969 0.80538857
-1.8258078 0.30613399 0.80564719
-1.8149163 0.30650774 0.80743408
-1.8057451 0.30897492 0.80332702
-1.7955266 0.30500421 0.8044734
-1.7853988 0.30375618 0.80399126
-1.7743158 0.30515325 0.80459762
-1.7649699 0.30725023 0.80195439
-1.7540623 0.30566496 0.80561435
-1.7448527 0.30191442 0.80355817
-1.7379282 0.30091658 0.80382138
-1.7212306 0.30165011 0.80182153
-1.7170436 0.30068076 0.8032521
-1.685768 0.30114454 0.80580151
-1.6753973 0.3037124 0.80161369
-1.6666028 0.30123675 0.80464971
-1.6547129 0.30336839 0.80098689
-1.6467131 0.30189922 0.80369294
-1.6300367 0.3017461 0.80174935
-1.6259253 0.30079424 0.80315411
-1.6132536 0.3021068 0.80085778
-1.6077933 0.30084264 0.80272341
-1.5930475 0.30214709 0.80046874
-1.5857704 0.30197799 0.80242693
-1.5721611 0.30275431 0.80026281
-1.5672233 0.30191231 0.8019284
-1.5487138 0.30018601 0.80069298
-1.3710537 0.30398476 0.80983043
-1.363417 0.30070055 0.8045969
-0.61983848 0.30191922 0.80043155
-0.37412706 0.30275017 0.80265486
-0.36680254 0.3049418 0.80403733
-0.27290389 0.30076054 0.80119997
-0.25198281 0.30076054 0.80119997
-0.24500912 0.30076054 0.80119997
-0.23416114 0.30076054 0.80119997
-0.22362427 0.30146113 0.80156362
-0.21561858 0.30184475 0.80176252
-0.20471668 0.30076054 0.80119997
-0.19485618 0.3019799 0.8015846
-0.18515407 0.30266359 0.80226266
-0.17471464 0.30280268 0.80320019
-0.16464175 0.30394086 0.80235416
-0.15529576 0.30286536 0.80255312
-0.14518535 0.3029083 0.80193549
-0.13458674 0.30375674 0.80513513
-0.12894163 0.30813187 0.80220002
-3.4015265 0.31663597 0.80132908
-3.3952408 0.31445056 0.80624199
-3.3897436 0.31950656 0.80982715
-2.0948114 0.31139922 0.80136377
-2.0848975 0.31161559 0.80363142
-2.0747998 0.31392223 0.80464315
-2.0641475 0.31450668 0.80559647
-2.0551999 0.31538752 0.80515116
-2.0483251 0.31720549 0.8043766
-2.0333858 0.31529126 0.80093956
-2.0261128 0.31511477 0.80331719
-2.0072517 0.3119916 0.80124146
-1.9848132 0.31197411 0.801162
-1.954777 0.31093901 0.80257177
-1.9326344 0.31254584 0.80101573
-1.9282725 0.31153598 0.80250609
-1.9108399 0.31069493 0.80085731
-1.9075925 0.31155378 0.80185223
-1.8866272 0.31009734 0.80034214
-1.8626513 0.31249288 0.80059099
-1.8569142 0.31116465 0.80255121
-1.8366762 0.3111923 0.80175281
-1.8128486 0.3106195 0.80089998
-1.8022127 0.3113184 0.80430901
-0.36185563 0.31137973 0.8006646
-0.13366754 0.31411839 0.8012588
-0.12971745 0.31124115 0.80220002
-3.4023154 0.32387742 0.8000015
-3.395442 0.32555199 0.80495876
-2.056716 0.32163307 0.80133283
-2.0472388 0.32192388 0.80439413
-2.0331216 0.32050583 0.80065429
-1.8943292 0.32942194 0.80489403
-3.4005527 0.3354573 0.8001346
-3.3955116 0.33544651 0.80389673
-3.3883753 0.33470726 0.80929649
-3.3954499 0.34413418 0.80305606
-3.3956511 0.35523558 0.80177277
-3.3932004 0.36512467 0.80259192
-3.3927135 0.37453532 0.80199462
-3.3880978 0.37380147 0.80551338
-3.3935022 0.38177678 0.80066711
-3.423455 0.39469749 0.80328912
-3.4175177 0.39614391 0.80757117
-3.423954 0.40394017 0.80197358
-3.417027 0.40562767 0.80696929
-3.4211879 0.41585106 0.8028214
-3.4151182 0.41608128 0.80732638
-3.4223802 0.42679769 0.80081451
-3.4149375 0.42561436 0.80648804
-3.420604 0.4384675 0.80094862
-3.4153771 0.43524605 0.80517703
-3.4167471 0.44502562 0.80315673
-3.4143958 0.45421353 0.8039732
-3.4142151 0.46374655 0.80313498
-3.4424396 0.47699368 0.80851579
-3.4127038 0.47784904 0.80282319
-3.4509232 0.48436728 0.80143362
-3.4469328 0.4853394 0.80431151
-3.4160697 0.48077464 0.80001324
-3.4437437 0.49366879 0.80584067
-3.4397533 0.49464095 0.80871862
-3.443948 0.50494748 0.804537
-3.4379625 0.50640583 0.80885386
-3.4374678 0.51596689 0.80824709
-1.5062891 1.1480213 0.80390626
-1.5113205 1.1541321 0.80183518
-1.5064645 1.1540383 0.80342102
-1.5080284 1.1637797 0.80980772
-1.5144796 1.1932236 0.80561459
-1.9227543 1.3296297 0.8081618
-1.7253151 1.3275896 0.80485028
-1.7154076 1.3266896 0.80813628
-1.7032627 1.3287036 0.8032999
-1.694539 1.326684 0.80628061
-1.6869156 1.3265368 0.80877018
-1.6745127 1.3238618 0.8056162
-1.6687222 1.3225212 0.80759478
-1.9729655 1.3380835 0.8083058
-1.9663545 1.338264 0.80180031
-1.9531583 1.3397357 0.805987
-1.945529 1.3379695 0.80859363
-1.9328517 1.3378812 0.80429101
-1.9246836 1.3351454 0.80714196
-1.9150871 1.3364476 0.80339462
-1.9075505 1.3383459 0.80300027
-1.8613451 1.3390044 0.80954778
-1.8470125 1.3374703 0.80588621
-1.8375171 1.3362707 0.8090595
-1.8177707 1.3389816 0.80664563
-1.8033142 1.3389395 0.80291831
-1.7860394 1.3371385 0.80866426
-1.7621195 1.3352687 0.80814439
-1.757762 1.3371037 0.80943084
-1.7413431 1.3347017 0.80756348
-1.7352428 1.335374 0.80481529
-1.7246898 1.3347611 0.80454326
-1.7141401 1.3337402 0.8055774
-1.707389 1.3346659 0.80585492
-1.699294 1.3326378 0.80431056
-1.6858547 1.3311441 0.80878735
-1.9731727 1.3406901 0.8080529
-1.9650469 1.3439434 0.80182141
-1.9555913 1.3431286 0.80495435
-1.9429947 1.3429832 0.80400217
-1.9379963 1.3421699 0.80231285
-1.9116063 1.3437667 0.80129558
-1.9048288 1.3455591 0.80337203
-1.8953978 1.3450563 0.80647498
-1.8870761 1.34531 0.8079586
-1.8726417 1.3449652 0.80544996
-1.8639014 1.3437257 0.80463314
-1.8548988 1.3442904 0.8028363
-1.8448638 1.3438699 0.80612963
-1.8347251 1.3447242 0.80308056
-1.8250147 1.3443034 0.80391121
-1.8148332 1.344928 0.80717778
-1.8054141 1.3455505 0.80296952
-1.7996297 1.3413839 0.80394256
-1.78373 1.3426489 0.80902314
-1.7622261 1.3447002 0.80743855
-1.7559956 1.3433503 0.80710155
-1.7475082 1.3437532 0.80491447
-1.7323455 1.3438494 0.80140698
-1.7239465 1.3424469 0.80423814
-1.9101367 1.3501493 0.80131942
-1.9064217 1.3593735 0.80187118
-1.8935608 1.3530345 0.80650455
-1.8847501 1.3520356 0.80341816
-1.8605609 1.3539252 0.80030942
-1.8337208 1.3537186 0.80041003
-1.8230429 1.350142 0.80413693
-1.8053993 1.355942 0.80419225
-1.7958478 1.3547969 0.80421805
-1.7855167 1.3565817 0.80745065
-1.7797657 1.3598665 0.80908716
-1.7654948 1.3574888 0.80546552
-1.9052846 1.3672736 0.80167878
-1.8945818 1.3658762 0.80525869
-1.8898869 1.3689909 0.80656391
-1.8313336 1.3686277 0.80012542
-1.8236337 1.3657408 0.80283493
-1.8027277 1.3640834 0.8013199
-1.7947299 1.3651295 0.8038463
-1.7856932 1.3612388 0.80706191
-1.7669829 1.360021 0.80480146
-1.8020338 1.3716166 0.80100954
-1.7975881 1.3705873 0.80252838
-0.99298352 -0.34230161 0.81536996
-0.99377429 -0.3349196 0.81331968
-0.98752517 -0.33477393 0.81767267
-1.000599 -0.32355493 0.81178075
-0.99422544 -0.32482645 0.81470639
-0.98656982 -0.32560885 0.81800628
-1.0009155 -0.31433836 0.81060386
-0.99505121 -0.31522387 0.81506968
-0.98908401 -0.31568027 0.81956816
-0.99731368 -0.30542248 0.8156358
-0.9970926 -0.29596466 0.8146621
-1.0114625 -0.2833384 0.81369859
-1.0045893 -0.28501531 0.81700289
-0.99855024 -0.28705412 0.81500816
-1.0117837 -0.27427521 0.81167537
-1.0071167 -0.27483258 0.81527328
-1.0138069 -0.26411709 0.81529588
-1.0082558 -0.26685601 0.81780636
-1.0201586 -0.25467393 0.81143785
-1.0148095 -0.25492808 0.81545484
-1.0087837 -0.25247368 0.8197
-1.0200733 -0.24266124 0.81027544
-1.0148371 -0.24452631 0.81437248
-1.0085979 -0.24399181 0.81813854
-1.02174 -0.23045996 0.81404573
-1.0144396 -0.2349343 0.81374961
-1.0089424 -0.23480995 0.81777877
-1.0232856 -0.22911653 0.81275541
-1.0161601 -0.22582699 0.81499743
-1.0220193 -0.215048 0.81226432
-1.0169673 -0.21539384 0.81606871
-1.0200229 -0.20768161 0.81300181
-1.0156846 -0.20504814 0.81587881
-1.0133033 -0.19818358 0.81078672
-1.0815809 -0.09224616 0.81632251
-0.9642058 -0.090082966 0.81407785
-1.1016457 -0.08050023 0.81475842
-1.0944388 -0.082404554 0.81512964
-1.0847639 -0.084867515 0.81495994
-1.0786314 -0.084257387 0.81855762
-0.97088814 -0.083312981 0.81142306
-0.96560335 -0.085340247 0.81731582
-1.1032221 -0.075154744 0.81491929
-1.0961465 -0.075082608 0.81879616
-1.0303874 -0.075935736 0.81810862
-1.0253502 -0.075624906 0.81445473
-1.0183728 -0.0706615 0.81110084
-0.97306484 -0.074870542 0.81362754
-0.96513873 -0.075378366 0.81770515
-0.95874625 -0.073767811 0.81996214
-1.1024538 -0.064595312 0.81389081
-1.0966285 -0.06707155 0.81806928
-1.0177953 -0.068153471 0.81111014
-0.98558748 -0.061000098 0.81032485
-0.9727605 -0.063222811 0.81267828
-0.96482885 -0.064874783 0.81611133
-0.95826894 -0.065227658 0.81950963
-1.1108514 -0.051034316 0.81230283
-1.1052119 -0.05571916 0.81447023
-1.0998843 -0.058980126 0.8164348
-1.0123438 -0.053015761 0.81602162
-1.0069187 -0.053500567 0.81360459
-0.99518973 -0.051987845 0.8118307
-0.98327404 -0.054545294 0.81061786
-0.97445631 -0.054643143 0.81415099
-0.96685898 -0.056306798 0.8160814
-1.1202712 -0.040382601 0.81480533
-1.1144819 -0.045931816 0.81455344
-1.1079334 -0.046538137 0.815642
-1.0133061 -0.046171255 0.81627566
-1.0055487 -0.044545826 0.81532919
-0.99478745 -0.044227693 0.81240582
-0.98352379 -0.043892592 0.81270635
-0.97673327 -0.047284301 0.81606078
-1.1241338 -0.031991687 0.81686693
-1.1158684 -0.03800777 0.81606817
-1.0018301 -0.036306489 0.81930566
-0.99495852 -0.036347453 0.8169058
-0.98636538 -0.035358384 0.81604648
-1.1330937 -0.023584971 0.81413788
-1.1255767 -0.02701118 0.81760913
-1.1190813 -0.029060079 0.81986725
-0.98477113 -0.026361644 0.81887585
-1.142311 -0.014142315 0.81125146
-1.1363454 -0.015501957 0.81709415
-1.1417434 -0.006298163 0.81313628
-1.1355798 -0.0056789694 0.8181079
-1.1515597 0.0073321527 0.81198549
-1.1461838 0.005181639 0.81455731
-1.1381692 0.00081255374 0.81680393
-1.1607536 0.017615324 0.81458753
-1.1531568 0.016511036 0.81368732
-1.1483085 0.014555271 0.81704563
-1.1643052 0.024768451 0.81457043
-1.1527156 0.025867231 0.8153699
-1.1479549 0.023678577 0.8173126
-1.1703985 0.032212116 0.81041241
-1.1665304 0.034068048 0.81341076
-1.1554697 0.035070769 0.81605351
-1.1499041 0.037746515 0.81948572
-1.1805596 0.048807126 0.81752062
-1.1744784 0.046875972 0.81541973
-1.1634445 0.042102475 0.81062216
-1.1565379 0.045014605 0.81427598
-1.1945866 0.056208685 0.81243247
-1.1843624 0.055545319 0.81404787
-1.1786354 0.053182386 0.81657028
-1.1632482 0.056354418 0.8128466
-1.1579551 0.05313357 0.81459099
-1.1939903 0.064101644 0.81589717
-1.1881684 0.062821642 0.81931877
-1.1972498 0.07295841 0.81432682
-1.2020304 0.08604221 0.81315863
-1.1995457 0.08769048 0.81384927
-1.2043532 0.094642505 0.81474227
-1.1992003 0.093674034 0.81669772
-1.2116678 0.10598546 0.81492919
-1.2074581 0.1013208 0.81452221
-0.66049814 0.10202947 0.8125307
-0.65783864 0.10270795 0.8131938
-1.2155855 0.11500075 0.81488067
-1.2146324 0.12171207 0.81720233
-1.209329 0.12302914 0.81447697
-0.53610432 0.1795443 0.8185966
-0.49735641 0.17945512 0.81855631
-0.55011672 0.18757527 0.81346834
-0.5437656 0.18504508 0.81538951
-0.53573304 0.18543264 0.81724441
-0.52441293 0.18803486 0.81673557
-0.51308584 0.1880759 0.81704354
-0.50499552 0.18535914 0.81459802
-0.49451584 0.18448924 0.81458181
-0.48594081 0.18605433 0.81708711
-0.47605661 0.18803382 0.81784612
-0.4678289 0.18714143 0.8174938
-1.2450328 0.19820081 0.81406415
-1.2357361 0.1962778 0.81617022
-1.2284172 0.19045317 0.81527603
-0.54292434 0.19275327 0.81192571
-0.53514904 0.19337825 0.81286395
-0.52674854 0.19145288 0.81376535
-0.51558983 0.19328305 0.81248605
-0.50641942 0.19156691 0.81053132
-0.49264014 0.1912657 0.81081796
-0.48260593 0.19129629 0.81407899
-0.47608656 0.19423577 0.81289828
-0.46681252 0.19260013 0.81047964
-1.3716495 0.20955622 0.81813824
-1.3680451 0.20726699 0.81947333
-1.2448933 0.20229828 0.81539887
-1.2344499 0.20437078 0.81372905
-1.2265606 0.20647003 0.81624544
-1.3737448 0.21669149 0.81694919
-1.3672493 0.21576531 0.81760246
-1.3504969 0.21185376 0.81852978
-1.346874 0.21600088 0.81859714
-1.3395621 0.2157003 0.81855237
-1.2315791 0.21063776 0.81025344
-1.2217399 0.21292734 0.81508315
-1.216787 0.21595262 0.81342679
-0.55603856 0.21676295 0.81716609
-0.51171058 0.21915768 0.8191992
-0.50691134 0.21880917 0.81880957
-0.46449554 0.2186604 0.81917495
-1.4132295 0.22811659 0.81594318
-1.4013742 0.22672378 0.81357402
-1.3952688 0.22557588 0.81564116
-1.3854508 0.22535317 0.81775737
-1.3733751 0.22518311 0.81410617
-1.367067 0.22498953 0.81693417
-1.3562691 0.22550455 0.81568134
-1.3466613 0.22255579 0.81901562
-1.3385968 0.22204137 0.81862527
-1.2159894 0.22453122 0.81414247
-0.56110066 0.22367878 0.8123495
-0.55516845 0.22485547 0.81538862
-0.54495454 0.22675093 0.81696784
-0.53571397 0.22723798 0.81852782
-0.52473402 0.22630553 0.81659341
-0.51513571 0.2250714 0.8151682
-0.50489759 0.22528122 0.81624806
-0.49437484 0.22861485 0.81823605
-0.48385888 0.22697483 0.8171739
-0.47548693 0.22714569 0.81672019
-0.46488693 0.22631906 0.81727821
-0.45557249 0.22872609 0.81880689
-0.44568366 0.22921142 0.81923378
-0.43519008 0.22898677 0.81751466
-0.4287596 0.22849178 0.8195467
-1.4113059 0.23647121 0.81597424
-1.4044214 0.23446593 0.81329679
-1.3946834 0.23483787 0.81517243
-1.3844484 0.23590943 0.81463677
-1.3753231 0.23373739 0.81453013
-1.3654187 0.23610225 0.81275719
-1.3560177 0.23420328 0.81444144
-1.3490167 0.23020031 0.811382
-1.2152975 0.23383191 0.815525
-0.72350001 0.23952532 0.81388456
-0.71144038 0.23987024 0.81251204
-0.7040143 0.23854743 0.81170118
-0.69453681 0.237221 0.81598425
-0.68493199 0.23177239 0.8172822
-0.67604309 0.23967177 0.81961071
-0.66202867 0.23950604 0.81891024
-0.65980017 0.2389901 0.81967163
-0.59417462 0.2384607 0.81891757
-0.55237448 0.23371661 0.81053317
-0.54513764 0.23259906 0.81229109
-0.53590077 0.23394321 0.8141275
-0.52552235 0.2324222 0.81362075
-0.51362395 0.23129272 0.81064939
-0.50337124 0.23371908 0.81380892
-0.49407122 0.23496629 0.81426775
-0.48524624 0.2344472 0.81310159
-0.47481802 0.23479708 0.81204921
-0.46521729 0.23425382 0.81364697
-0.4546003 0.23473898 0.81409431
-0.44484937 0.23527512 0.81491309
-0.43489784 0.23542859 0.81424946
-0.42567047 0.23630902 0.8158859
-0.41540456 0.23761073 0.81717402
-0.40797025 0.23852837 0.81785536
-0.38493419 0.23925085 0.81919998
-0.37965244 0.23925085 0.81919998
-1.4039553 0.24551913 0.81534952
-1.3952006 0.24452698 0.81431478
-1.3865559 0.24487376 0.8154121
-1.3747617 0.24521379 0.8149851
-1.3654768 0.24308951 0.81349313
-1.2143352 0.24630921 0.81521362
-1.2095119 0.24784428 0.81515855
-1.1712606 0.24819747 0.81795013
-1.1659547 0.24596129 0.81531781
-1.1571754 0.24482596 0.81531948
-1.102362 0.24862637 0.81713825
-1.0966555 0.24799208 0.81903911
-1.0256225 0.24687901 0.81882048
-0.96472555 0.24754976 0.81644344
-0.95524609 0.24674542 0.81665564
-0.9443019 0.24619727 0.81738454
-0.93496054 0.24816449 0.81553954
-0.92472553 0.246728 0.81653434
-0.91445202 0.24651125 0.81383473
-0.90582317 0.24592637 0.81538218
-0.89519316 0.24599095 0.81611961
-0.88443166 0.24602522 0.81514549
-0.87535316 0.2459079 0.81642944
-0.86402428 0.24696569 0.81722182
-0.85808682 0.24708964 0.81932557
-0.73227209 0.24782525 0.81044126
-0.7244482 0.24507354 0.8131814
-0.71427184 0.24468857 0.81124842
-0.70502597 0.2449069 0.81423968
-0.69491488 0.24486963 0.81679261
-0.68499118 0.24535827 0.81536621
-0.67618644 0.2456205 0.8167454
-0.66496974 0.24522132 0.81529868
-0.65553921 0.24519813 0.81560928
-0.64590901 0.24573141 0.81738567
-0.63489825 0.24568474 0.81675386
-0.62603492 0.24569255 0.81541973
-0.61582565 0.24650125 0.81509888
-0.60539573 0.2451258 0.81566221
-0.59495038 0.24468787 0.81588006
-0.58545941 0.24735551 0.81584913
-0.5781976 0.24622601 0.81829101
-0.47337881 0.24275242 0.81086648
-0.4679586 0.24322405 0.81127685
-0.45334521 0.24125633 0.81100005
-0.44477233 0.24170031 0.81048554
-0.4343569 0.24164759 0.81097728
-0.42456236 0.24143891 0.81195492
-0.41527864 0.24153242 0.81174624
-0.40506944 0.24262448 0.81282991
-0.39454821 0.2424017 0.81477565
-0.38531369 0.24521178 0.81529993
-0.37596577 0.24685615 0.81687659
-1.4109527 0.25644261 0.81896454
-1.4028108 0.25639448 0.81640875
-1.3953545 0.25455645 0.81586599
-1.3845394 0.25390908 0.81490046
-1.3758237 0.25532249 0.81624597
-1.3675318 0.25625223 0.81733
-1.3371252 0.25801566 0.81959349
-1.2124141 0.25562978 0.81385845
-1.2051221 0.25633588 0.81727797
-1.1924945 0.25758889 0.81691098
-1.1864111 0.25556204 0.81772673
-1.173377 0.25506917 0.81202996
-1.1646008 0.25469938 0.8133294
-1.1567659 0.25449705 0.8145743
-1.14627 0.25927204 0.81986576
-1.1333598 0.25705829 0.81805134
-1.1271981 0.25643736 0.81693739
-1.1131074 0.25618261 0.81574106
-1.104226 0.25426272 0.81507707
-1.0959402 0.25436738 0.81421906
-1.0857712 0.25248936 0.81417841
-1.0430186 0.25887457 0.81882697
-1.034079 0.25663096 0.81946659
-1.0270412 0.25811365 0.81830674
-0.96327823 0.25197315 0.81132942
-0.95511872 0.25232568 0.8122012
-0.94564533 0.25063816 0.81188887
-0.93208957 0.25092009 0.81079662
-0.92972451 0.25037253 0.81160474
-0.9137193 0.25353229 0.811315
-0.90542781 0.25255823 0.81276327
-0.89552945 0.25352848 0.81196082
-0.88429564 0.25238726 0.81130368
-0.87868887 0.25120896 0.81233263
-0.86385995 0.2543925 0.81306982
-0.85614181 0.25625196 0.81467694
-0.73144984 0.25139636 0.81045455
-0.72728932 0.25193769 0.81176901
-0.71403962 0.25254413 0.81076497
-0.70414484 0.25301069 0.81306422
-0.69514763 0.25296065 0.81333762
-0.68268758 0.25172707 0.81132239
-0.67204857 0.25218308 0.810534
-0.66760588 0.25115454 0.81205189
-0.65508747 0.25225443 0.81182873
-0.64543951 0.25138938 0.81502783
-0.63884479 0.25039244 0.81197357
-0.61594617 0.25081396 0.81095856
-0.60152155 0.25223279 0.81027865
-0.59563744 0.25255641 0.81216925
-0.58497298 0.25442398 0.81550431
-0.5795837 0.25018838 0.81755829
-0.38412118 0.25343543 0.81153327
-0.37439495 0.25467426 0.81387824
-0.36921817 0.25530222 0.8174727
-1.9902616 0.26976922 0.81827098
-1.5390261 0.26946777 0.81897253
-1.5138519 0.26899716 0.818775
-1.5033647 0.26590243 0.81815255
-1.4930495 0.26561683 0.81711483
-1.4842774 0.26609233 0.81703901
-1.4749768 0.26748106 0.81684291
-1.4652915 0.2658664 0.81733072
-1.455979 0.26568106 0.81620353
-1.4452366 0.26661396 0.81534469
-1.4342512 0.26614273 0.81536829
-1.4236915 0.26786602 0.81629682
-1.4146589 0.26690036 0.81710547
-1.4042847 0.26626649 0.81533813
-1.3945978 0.26559263 0.81477153
-1.3836261 0.26552925 0.81497854
-1.3736949 0.26611128 0.81348872
-1.3662161 0.2651991 0.81619161
-1.3557402 0.26630133 0.81570691
-1.3455901 0.26574579 0.81608278
-1.33693 0.26356876 0.81866258
-1.3230454 0.26521957 0.81505519
-1.317328 0.26448405 0.81488943
-1.2118493 0.26380074 0.8113727
-1.2049199 0.26377922 0.81390917
-1.1946765 0.26469603 0.81535029
-1.1857775 0.2646336 0.81715178
-1.1748459 0.2656616 0.81516075
-1.1672456 0.26226005 0.81193131
-1.1550786 0.26277584 0.81293607
-1.1449139 0.26228967 0.81498998
-1.1350081 0.26552156 0.81363702
-1.1259965 0.26484674 0.81551605
-1.1150329 0.26536572 0.81545478
-1.1033041 0.26656216 0.81401902
-1.0977991 0.26623523 0.81500983
-1.0543756 0.26415032 0.81857789
-1.0458472 0.2649141 0.81922966
-1.0332298 0.2622098 0.81953067
-1.0287703 0.26066536 0.81675625
-0.86093903 0.26405153 0.81319004
-0.85509574 0.26511165 0.81521612
-0.84567422 0.26771185 0.81919807
-0.82464337 0.26864564 0.81801915
-0.81468248 0.26927954 0.8193773
-0.80354744 0.26876429 0.81855756
-0.79499745 0.26856628 0.81911498
-0.77279091 0.26945388 0.81931865
-0.76861268 0.26989856 0.81738335
-0.74335754 0.26897001 0.81854469
-0.735798 0.26909551 0.81916463
-0.72432536 0.26938817 0.81893164
-0.70524073 0.26949167 0.8193897
-0.67572802 0.26988545 0.81983715
-0.65505016 0.26960015 0.81964588
-0.64646453 0.26923624 0.81878644
-0.63112092 0.26921451 0.81938708
-0.58618903 0.26142824 0.81461048
-0.37205783 0.26415816 0.81300956
-0.36923975 0.26345944 0.81619996
-2.0150754 0.27912691 0.81132072
-2.0054343 0.27759403 0.81867039
-1.9910809 0.27729189 0.81689179
-1.9887677 0.27528137 0.81882286
-1.9731646 0.27723143 0.81774694
-1.9563071 0.27815703 0.81746095
-1.9370024 0.27783623 0.81937838
-1.9238255 0.27755648 0.81797159
-1.9120626 0.27920473 0.81406134
-1.9075578 0.2752893 0.81782198
-1.8952459 0.27765897 0.81399721
-1.8847322 0.27770349 0.81432563
-1.8764939 0.27567288 0.81692392
-1.8635432 0.27712885 0.81517142
-1.8582733 0.27298379 0.81952631
-1.8439864 0.27797943 0.81840909
-1.8310086 0.27768466 0.81660509
-1.827975 0.27720237 0.81891751
-1.8154949 0.27928382 0.81674999
-1.8028057 0.27898586 0.8149811
-1.7982688 0.27646422 0.81862336
-1.7841922 0.27773806 0.81772941
-1.7714643 0.27743891 0.81573933
-1.7610967 0.27900547 0.81204802
-1.7560635 0.27547058 0.81616402
-1.7443204 0.27564752 0.81489277
-1.7355244 0.27540368 0.81472051
-1.7249234 0.27620348 0.8180415
-1.713521 0.27752259 0.81614894
-1.7043766 0.27786726 0.8129217
-1.6969745 0.27967066 0.81826025
-1.6808621 0.27799371 0.81918627
-1.6698149 0.27997419 0.81721163
-1.6554651 0.27699688 0.81820709
-1.6441131 0.27672148 0.81643981
-1.6341999 0.27718216 0.81627798
-1.6267188 0.27637371 0.81693476
-1.6157199 0.27617067 0.81765074
-1.6041033 0.2784538 0.81827259
-1.5906959 0.27697057 0.81746179
-1.5844903 0.27710503 0.81821048
-1.5752689 0.27712482 0.81712747
-1.5651234 0.2763027 0.8180843
-1.5551089 0.27586719 0.81616926
-1.5449311 0.27514941 0.81655031
-1.5353558 0.27584612 0.81564128
-1.5242636 0.27604333 0.81493211
-1.5159521 0.27618396 0.81427032
-1.5049329 0.27392599 0.81501001
-1.4959332 0.27403897 0.81453145
-1.4848369 0.27505964 0.81375974
-1.4747576 0.27596349 0.81347805
-1.4640079 0.27338853 0.81455874
-1.4558222 0.27511784 0.81209362
-1.44522 0.27194136 0.81272686
-1.4251713 0.27158064 0.81281674
-1.4158903 0.27083147 0.81343061
-1.4054654 0.27262533 0.81119239
-1.3967001 0.27249354 0.81159961
-1.3836594 0.27231002 0.81110054
-1.373484 0.27316168 0.81168908
-1.3632969 0.27360636 0.81197643
-1.3543893 0.27431092 0.81308693
-1.3453015 0.27495161 0.81698531
-1.3343173 0.27396658 0.81651819
-1.2113056 0.27151534 0.81140423
-1.2027413 0.27477986 0.81145191
-1.1945997 0.27467814 0.81156361
-1.1822605 0.27051589 0.81189519
-1.1754681 0.2723265 0.8157351
-1.1323357 0.27233118 0.81177902
-1.1253432 0.2710855 0.81190729
-1.1021909 0.27221492 0.81112289
-1.0515319 0.27027148 0.81757116
-0.85361654 0.2726897 0.81276441
-0.84776956 0.27145824 0.81725246
-0.82212549 0.27220505 0.81602925
-0.81610632 0.27350864 0.81838417
-0.80464166 0.27402169 0.81543112
-0.7951526 0.27422321 0.81532919
-0.78509033 0.27525556 0.81527263
-0.77494091 0.27510861 0.81538486
-0.76475072 0.27557501 0.81567937
-0.75444013 0.27514911 0.81510931
-0.74468744 0.27517289 0.81509852
-0.73488927 0.27491301 0.81611931
-0.72521287 0.27494517 0.81576192
-0.71585703 0.27513173 0.81479621
-0.70447403 0.27488017 0.81404674
-0.69586825 0.27590334 0.8164227
-0.68412626 0.27516705 0.81566113
-0.67591584 0.27587959 0.81644249
-0.66568488 0.27609947 0.81660765
-0.6551612 0.27504632 0.81536555
-0.6450749 0.2747888 0.81450987
-0.63493019 0.27550131 0.81528217
-0.62569559 0.27627945 0.81723702
-0.61521959 0.27637133 0.81584424
-0.37385911 0.27543649 0.81515449
-0.36516234 0.27677259 0.81703341
-0.35604426 0.27756643 0.81775546
-0.34426722 0.27815887 0.81772941
-0.33498245 0.27845371 0.81803328
-0.32462764 0.27817905 0.8179
-0.31493056 0.27756068 0.81720001
-0.30540007 0.27776098 0.81776536
-0.29482278 0.27821881 0.81841427
-0.2879962 0.27823764 0.81899995
-0.27190468 0.27894077 0.81919998
-0.26457021 0.27772325 0.81873322
-0.25737986 0.2784116 0.81919998
-0.24408634 0.27820355 0.81889999
-0.23704509 0.27894077 0.81919998
-0.21090043 0.27894077 0.81919998
-0.20773137 0.27894077 0.81919998
-3.3924801 0.2891053 0.81088853
-3.3860629 0.28571299 0.81602257
-2.0142572 0.28450194 0.81138247
-1.9954756 0.28467894 0.812859
-1.9859701 0.28368986 0.81587905
-1.9764481 0.28347242 0.81466007
-1.9625891 0.28511432 0.81206387
-1.9557033 0.28212363 0.81750655
-1.946106 0.28574863 0.81177872
-1.9313539 0.28706333 0.8113845
-1.9283551 0.28149337 0.81419039
-1.9152431 0.2834428 0.81125575
-1.8973224 0.2827611 0.8119272
-1.8813133 0.28934065 0.8193565
-1.8645496 0.28335199 0.81423473
-1.8533875 0.28570589 0.81285989
-1.8474698 0.28245065 0.81535387
-1.8355308 0.28552419 0.81495172
-1.8293318 0.28053585 0.81756502
-1.8046347 0.2831344 0.81319314
-1.7917584 0.28431424 0.81141317
-1.7885158 0.28149587 0.81412011
-1.776019 0.28350806 0.81172168
-1.762419 0.28225422 0.81072992
-1.7456373 0.28408346 0.81388777
-1.7336649 0.2857464 0.81418204
-1.7251518 0.28493571 0.81637621
-1.7172631 0.28551248 0.81701976
-1.7059212 0.28332829 0.81121188
-1.6957476 0.28600851 0.81656206
-1.6849892 0.28384176 0.81514448
-1.674772 0.28587121 0.81508243
-1.6630049 0.28684705 0.81288338
-1.655283 0.28544053 0.81505501
-1.6463616 0.28659815 0.81531066
-1.634779 0.28553134 0.81556422
-1.6263468 0.28411722 0.81684041
-1.6142011 0.28595513 0.81436199
-1.6058487 0.28411439 0.8172406
-1.5944047 0.28574008 0.81394875
-1.5841873 0.28570631 0.8132996
-1.5753959 0.28298122 0.81447482
-1.563663 0.28480205 0.81122845
-1.5560774 0.28361633 0.81333941
-1.5444189 0.28342083 0.81099766
-1.5385844 0.28142992 0.81269932
-1.4808357 0.2810435 0.81042755
-1.471849 0.28342018 0.81318092
-1.4665205 0.28173691 0.8134526
-1.3617786 0.28125358 0.81155968
-1.3528244 0.28419542 0.81042904
-0.80218089 0.28091064 0.81249559
-0.78305143 0.28115505 0.81046909
-0.77410126 0.28114048 0.81214094
-0.76374137 0.2817722 0.81079268
-0.75505459 0.28175154 0.81126708
-0.74590057 0.28106001 0.81134492
-0.73467338 0.28200811 0.81180066
-0.72666073 0.28206372 0.81088817
-0.70184255 0.28098348 0.81198931
-0.69375503 0.28037673 0.8109498
-0.6853897 0.28098837 0.8111825
-0.67622799 0.28098351 0.81144631
-0.66422516 0.28161868 0.8109479
-0.65534931 0.28099611 0.81137455
-0.64360142 0.28099734 0.8107506
-0.63318837 0.28227362 0.81125402
-0.62530863 0.281223 0.81348479
-0.6148876 0.28386906 0.8138364
-0.3742204 0.28327411 0.8118673
-0.36494339 0.28364959 0.81235796
-0.35487226 0.28268105 0.8138665
-0.34533384 0.28353477 0.8134222
-0.33462346 0.28274882 0.8128469
-0.32520154 0.2839995 0.81357151
-0.3149496 0.28359497 0.81314117
-0.30494148 0.2840687 0.8131566
-0.29472765 0.28440812 0.81386662
-0.28496578 0.28457502 0.81456542
-0.27485248 0.28461784 0.81452644
-0.26498729 0.2846587 0.81460023
-0.25524926 0.2847172 0.8154
-0.24474582 0.28442314 0.81405711
-0.23504052 0.28460974 0.81500781
-0.22520562 0.28496927 0.81616098
-0.2151738 0.28527418 0.81653994
-0.20496821 0.28492725 0.81569022
-0.19522381 0.28573665 0.81674337
-0.18539709 0.28613493 0.81752259
-0.17475171 0.28654209 0.81731761
-0.16520242 0.28714111 0.8182739
-0.15517366 0.28747013 0.81833041
-0.14517285 0.28584445 0.81799453
-0.1351916 0.28675553 0.8178001
-0.1255762 0.28739974 0.81842726
-0.11926199 0.28793716 0.81919998
-3.3850193 0.29463986 0.81589007
-2.1013348 0.29859817 0.8139677
-2.0943532 0.29782218 0.8162933
-2.0873718 0.29704618 0.81861889
-2.0255337 0.29812363 0.81314611
-2.0143719 0.29369858 0.81485814
-2.0066361 0.29581797 0.81523991
-1.994513 0.29837796 0.81478435
-1.9838358 0.29458702 0.81852639
-1.9755125 0.29917437 0.81247509
-1.9646316 0.2958349 0.81625116
-1.9549404 0.29736862 0.81486702
-1.9450858 0.29575139 0.81523573
-1.9346598 0.2958113 0.81581146
-1.9255117 0.29766038 0.81303376
-1.9145586 0.29620844 0.81669903
-1.9079762 0.29360068 0.8190251
-1.893456 0.29646561 0.8149007
-1.8843656 0.29368562 0.81621027
-1.8747648 0.29783303 0.8135041
-1.8645918 0.29584602 0.81695372
-1.8563169 0.29621595 0.81624573
-1.8458469 0.29516095 0.81466669
-1.8344913 0.29540318 0.81373131
-1.824806 0.29689208 0.81400841
-1.814932 0.29665777 0.81723601
-1.8062105 0.29674625 0.81760669
-1.7940823 0.29497591 0.81675828
-1.7873526 0.29477689 0.81752056
-1.7780221 0.29939532 0.81302416
-1.7635721 0.29499611 0.81803638
-1.7567811 0.29759026 0.81514174
-1.7457386 0.29290077 0.81414795
-1.735276 0.29191536 0.812702
-1.7270247 0.29167619 0.81540233
-1.7153069 0.29288226 0.81322497
-1.7047492 0.29323515 0.81515771
-1.6947947 0.29350108 0.81591678
-1.6849433 0.29324901 0.81421995
-1.6734649 0.29314408 0.8103717
-1.6690595 0.29109371 0.81195027
-1.6531022 0.2904906 0.81718242
-1.6456089 0.29329899 0.81204176
-1.6368501 0.29127115 0.81503439
-1.625095 0.29344794 0.8113246
-1.6162392 0.29254648 0.81426859
-1.6053133 0.29362288 0.81331843
-1.5975901 0.29220119 0.81298018
-1.5845338 0.29139122 0.81081039
-1.3706162 0.29996851 0.81056672
-0.3752974 0.29271111 0.81201422
-0.30496114 0.29000762 0.81019998
-0.29399133 0.29000762 0.81019998
-0.28302148 0.29000762 0.81019998
-0.27988726 0.29000762 0.81019998
-0.26499963 0.29000762 0.81019992
-0.2548134 0.29000762 0.81019986
-0.24384356 0.29000762 0.81019998
-0.23532021 0.29012695 0.81053334
-0.2244744 0.29075429 0.81131107
-0.21540232 0.29098165 0.81092721
-0.20544916 0.29000762 0.81019992
-0.19380611 0.29232031 0.8124727
-0.18513635 0.29377434 0.81373841
-0.17471805 0.29354212 0.8120333
-0.16520406 0.29270816 0.81363744
-0.15480813 0.29299438 0.81323028
-0.14486896 0.29330862 0.81247771
-0.13489293 0.29364026 0.81229305
-0.12592603 0.29468569 0.81550944
-0.11868101 0.2941817 0.81919992
-3.3907175 0.30068526 0.81102169
-3.3862021 0.30550209 0.81389874
-3.3789346 0.30355591 0.8195197
-2.1006 0.30178946 0.81397957
-2.0955782 0.3028678 0.81553596
-2.0823081 0.30405998 0.81344277
-2.0738654 0.30594134 0.81394649
-2.0646994 0.30644783 0.81689119
-2.0580993 0.3056367 0.81909531
-2.0433028 0.30468789 0.815543
-2.0362902 0.30260846 0.81509066
-2.028163 0.30259785 0.81197274
-2.0048859 0.30077943 0.81124026
-1.9799365 0.30019861 0.81096351
-1.9588971 0.30025595 0.81042373
-1.9479038 0.30097833 0.81394732
-1.9321072 0.30243897 0.81054878
-1.9248008 0.30074742 0.8130452
-1.9182448 0.3024812 0.81505382
-1.9034609 0.30223283 0.81123674
-1.8956698 0.30237028 0.8137607
-1.8849007 0.30228335 0.8135801
-1.8748237 0.30155122 0.81322038
-1.8674091 0.30063999 0.81569648
-1.8549352 0.30276012 0.81117046
-1.8346633 0.30282164 0.81038088
-1.8257087 0.30234429 0.81332684
-1.8113191 0.30373293 0.81052971
-1.8064947 0.30182159 0.8122347
-1.7822843 0.30038205 0.8115679
-1.7750273 0.30265355 0.81376618
-1.7678727 0.30231434 0.81611705
-1.7589504 0.30279616 0.81160665
-1.3688754 0.30451548 0.81140143
-0.12649943 0.30511391 0.81456113
-3.384177 0.31466812 0.81447434
-2.0663891 0.31090134 0.81602496
-2.0518091 0.31109667 0.81232083
-2.0473199 0.3100574 0.81385458
-0.1269334 0.31099242 0.81169999
-3.3843782 0.32576954 0.81319118
-3.3766851 0.32454646 0.81905556
-3.3837595 0.33397341 0.81281519
-3.4136369 0.34652269 0.81553149
-3.4076996 0.3479692 0.81981355
-3.380327 0.34410176 0.81434238
-3.4124527 0.35430261 0.81562096
-3.4072089 0.35745299 0.81921166
-3.4126556 0.36549029 0.81432772
-3.4080038 0.36475074 0.81787372
-3.4062274 0.37642056 0.81800789
-3.4133568 0.38592067 0.81171894
-3.4077158 0.38542214 0.81597859
-3.4128661 0.39540437 0.81111711
-3.4082146 0.39466485 0.81466305
-3.4106925 0.40342528 0.81192023
-3.4081211 0.40779743 0.81339228
-3.4114873 0.41072306 0.81058234
-3.408916 0.41509518 0.8120544
-3.4084253 0.42457893 0.81145251
-3.4333427 0.43578357 0.81950909
-3.434411 0.44559312 0.8177107
-3.4336491 0.45270178 0.81755352
-3.4297609 0.45931333 0.81977957
-3.4325578 0.46618447 0.81699181
-3.4344902 0.47452477 0.8146987
-3.428371 0.47475684 0.81924045
-3.4349105 0.48543632 0.81327128
-3.4295731 0.48579261 0.81721717
-3.4344158 0.49499723 0.81266451
-3.4273815 0.4938789 0.81802678
-3.4646442 0.50413197 0.81546742
-3.432574 0.50394249 0.81312561
-3.42519 0.50196522 0.81883645
-3.4340744 0.51301742 0.81107992
-3.4293849 0.51227182 0.81465483
-3.4322836 0.5247823 0.81121516
-3.4258034 0.53580153 0.81492531
-1.5107735 1.1592236 0.81661683
-1.5074897 1.1563836 0.81788683
-1.5100917 1.1621852 0.81662786
-1.5080078 1.1648223 0.81711793
-1.6353858 1.3083606 0.81944335
-1.6265888 1.3076911 0.81392008
-1.7639848 1.3199421 0.81705999
-1.7580575 1.3185699 0.81908524
-1.7331036 1.3182693 0.81878996
-1.7299151 1.3186249 0.81980151
-1.6902442 1.3194702 0.81683302
-1.6844941 1.3175133 0.8159613
-1.6743406 1.3179637 0.81346953
-1.6650865 1.3182477 0.81645876
-1.6579412 1.3171326 0.81886178
-1.6415679 1.3146238 0.81698728
-1.6365075 1.3145262 0.81863976
-1.6258881 1.3107343 0.81393141
-1.9954041 1.3247242 0.81987649
-1.9807789 1.3287185 0.81591672
-1.9157548 1.3276811 0.81900835
-1.9071982 1.3277178 0.8133567
-1.8924221 1.329366 0.81804454
-1.8882353 1.3267069 0.81959528
-1.8624902 1.3290342 0.81831646
-1.8579582 1.3279849 0.81986493
-1.8335103 1.3292147 0.81929624
-1.8062478 1.3296973 0.81969595
-1.791693 1.329631 0.81579143
-1.783942 1.3265111 0.81853402
-1.7732766 1.3270394 0.81353331
-1.7646658 1.325458 0.81644607
-1.7576573 1.3257315 0.81870574
-1.7446889 1.3264204 0.8144424
-1.7341783 1.3262457 0.8162334
-1.7254375 1.3252162 0.81525534
-1.7144085 1.3262875 0.81692141
-1.703692 1.3262417 0.81197798
-1.695655 1.3243809 0.81472403
-1.6823366 1.3213776 0.8140834
-1.6746237 1.3227203 0.813039
-1.6691145 1.3240331 0.8147372
-1.6571293 1.322876 0.81871712
-1.9935212 1.3329017 0.81990695
-1.9833497 1.3356827 0.81458515
-1.9753088 1.3360256 0.81717569
-1.9659475 1.3383256 0.81436503
-1.9535042 1.337274 0.8146922
-1.9455758 1.334301 0.81748199
-1.935997 1.3348429 0.81407654
-1.9237963 1.3346357 0.81589836
-1.9155036 1.3345577 0.81438488
-1.9048178 1.335277 0.81359291
-1.8948988 1.3348204 0.81685108
-1.8854424 1.3363607 0.81575137
-1.8748815 1.3356845 0.81381357
-1.86494 1.3349795 0.81709671
-1.8560048 1.3355937 0.81574285
-1.8449898 1.3343816 0.8151955
-1.8326713 1.3342838 0.81452405
-1.825053 1.3352996 0.81318188
-1.8150238 1.3353916 0.81643689
-1.8058949 1.3370796 0.81496418
-1.7954357 1.3338107 0.81427681
-1.7852812 1.3347731 0.81751066
-1.7739061 1.3349575 0.81276512
-1.7648062 1.3333218 0.81584078
-1.7551341 1.3354374 0.81461978
-1.7467989 1.3343469 0.81319219
-1.738086 1.3303608 0.81630921
-1.715176 1.3319111 0.8162716
-1.7056911 1.3395177 0.81881487
-1.9731567 1.3406717 0.81754494
-1.9632281 1.3417994 0.81120795
-1.9563497 1.3436184 0.81331533
-1.9402094 1.3401332 0.8101697
-1.9106874 1.3403533 0.81132287
-1.9043338 1.3429375 0.81320512
-1.8959115 1.3420012 0.81601071
-1.8829454 1.3438541 0.81060988
-1.875293 1.343523 0.81312197
-1.867839 1.3403567 0.8157714
-1.8576069 1.3414843 0.81058699
-1.8478546 1.3425721 0.81368095
-1.8317262 1.3422551 0.81051683
-1.8257408 1.3408694 0.81256193
-1.8150374 1.3417209 0.81598204
-1.8033797 1.3450499 0.81233424
-1.7960799 1.3446357 0.81329703
-1.784446 1.3431828 0.81549758
-1.7734776 1.3448092 0.81220353
-1.7525144 1.3419049 0.81079566
-1.7492064 1.3427798 0.81180924
-1.7049768 1.3426198 0.81882632
-1.8814757 1.3502367 0.81063372
-1.8022373 1.3519517 0.81077409
-1.7942593 1.3542463 0.81320524
-1.7852416 1.3553797 0.81605715
-1.7747033 1.3568274 0.81215423
-1.7648273 1.3569574 0.81415218
-1.7586595 1.3566288 0.8161813
-1.7955977 1.3603543 0.81233543
-1.7757208 1.3638761 0.81011724
-1.7644268 1.3620857 0.8139174
-1.7575784 1.3613245 0.81619871
-0.98834634 -0.35145047 0.82877678
-0.99130327 -0.34579182 0.82098585
-0.98545325 -0.34523639 0.8249808
-0.97955674 -0.34387332 0.82830209
-0.98271519 -0.33524853 0.82176501
-0.97867072 -0.33468479 0.82627267
-0.98383015 -0.32396367 0.82403892
-0.97888875 -0.32862446 0.82599223
-0.99161065 -0.31198326 0.82231295
-0.98675466 -0.31597808 0.82441783
-0.99254328 -0.30392963 0.82250208
-0.98807472 -0.30645978 0.82438731
-1.0011021 -0.29176134 0.82443392
-0.99608374 -0.29450205 0.82551241
-1.0026953 -0.2851055 0.82256585
-0.99732441 -0.28580683 0.82706195
-1.0026453 -0.27530956 0.82425433
-0.99901712 -0.27535087 0.82832032
-1.0060282 -0.26539162 0.82445794
-0.99822962 -0.26406425 0.82875729
-1.0051588 -0.25531548 0.82386816
-1.0052421 -0.24480085 0.82485348
-1.010287 -0.2328297 0.82283247
-1.0073137 -0.23571734 0.8253454
-1.0130622 -0.22372191 0.82298273
-1.0088305 -0.22648613 0.82619256
-1.0155671 -0.21455169 0.82562327
-1.014089 -0.2071398 0.82513505
-1.0777848 -0.10194361 0.82667869
-1.077356 -0.095367812 0.82443386
-1.0857972 -0.081165016 0.82259452
-1.0759045 -0.084467173 0.82365125
-0.96192843 -0.084247649 0.82494277
-0.95869303 -0.082665183 0.82324743
-1.0924579 -0.074584328 0.82206804
-1.0854769 -0.075937621 0.82458526
-1.0736811 -0.078563347 0.8263495
-1.0288213 -0.075673372 0.82386899
-0.95521206 -0.074586041 0.82116967
-1.1000206 -0.064078026 0.8230769
-1.0948113 -0.064886883 0.82592469
-1.0889597 -0.069486722 0.82389688
-0.96148187 -0.060668886 0.82341021
-0.95422953 -0.064026177 0.82217503
-1.1029476 -0.05441346 0.82280755
-1.0975418 -0.056278098 0.82731384
-0.96379447 -0.053886574 0.82308906
-0.95797449 -0.0568863 0.8261084
-1.1134344 -0.042588033 0.82477409
-1.1062487 -0.046192475 0.82523835
-1.0134419 -0.041832455 0.82646227
-1.0082011 -0.041591961 0.82287979
-0.98060846 -0.042420745 0.82137221
-0.97501308 -0.043915164 0.82681137
-0.96627635 -0.049033474 0.82102317
-1.1213886 -0.033163898 0.82467866
-1.1160229 -0.035433244 0.82536894
-1.1096927 -0.038607266 0.82886952
-1.0101649 -0.038583882 0.82729691
-1.0066919 -0.033740927 0.82507038
