# .PCD v0.7 - Point Cloud Data file format
VERSION 0.7
FIELDS x y z
SIZE 4 4 4
TYPE F F F
COUNT 1 1 1
WIDTH 1439
HEIGHT 1
VIEWPOINT 0 0 0 1 0 0 0
POINTS 1439
DATA ascii
-1.417053 0.35178208 0.73177332
-1.4070827 0.35210538 0.73048246
-1.3958535 0.3507632 0.73084515
-1.3844644 0.35042652 0.73004413
-1.3758924 0.34813258 0.73085153
-1.293148 0.3490991 0.72646296
-1.2885984 0.34625033 0.72903001
-0.74464858 0.34953579 0.7313785
-0.73499966 0.34876868 0.73012453
-0.72479373 0.34895173 0.72949678
-0.71419966 0.34893069 0.73040295
-0.70537621 0.34938776 0.72990036
-0.69401067 0.34983754 0.72970879
-0.68467683 0.34897059 0.73052371
-0.67482466 0.35028118 0.72885883
-0.66599166 0.34875372 0.72994494
-0.65623277 0.34850928 0.72877628
-0.4106037 0.35286 0.73071462
-0.40405142 0.35309309 0.73408264
-0.39352092 0.35656163 0.73680639
-0.38737559 0.35838062 0.73817807
-3.3746715 0.36594915 0.73896891
-3.3745794 0.36526045 0.73928028
-2.0907493 0.36827153 0.73869985
-2.075424 0.36789915 0.73666102
-2.0660992 0.36326227 0.74136662
-2.0553751 0.36559236 0.73781502
-2.0389893 0.365289 0.7381795
-2.0238934 0.36624354 0.73768139
-2.0171697 0.36635235 0.73896098
-2.0078294 0.36830953 0.73660386
-1.99411 0.36874804 0.73609924
-1.9834772 0.36548495 0.73978275
-1.9747986 0.36686072 0.73795307
-1.9626805 0.36945644 0.73529649
-1.9577261 0.36616111 0.73897398
-1.9467796 0.36853817 0.73639315
-1.9329405 0.3688499 0.73637313
-1.9258169 0.36749953 0.73736328
-1.880867 0.36499029 0.7290951
-1.8794059 0.3650139 0.7276358
-1.6272914 0.35183913 0.7274515
-1.6185321 0.35569242 0.7274518
-1.6116946 0.35665998 0.72892201
-1.602993 0.35899833 0.72857195
-1.5944172 0.35910213 0.73073041
-1.5847921 0.36037451 0.73116118
-1.5758731 0.36032179 0.73141837
-1.5656773 0.36141399 0.72982192
-1.5564563 0.35907182 0.73187393
-1.5464778 0.36156622 0.72894216
-1.530135 0.36013252 0.72987944
-1.5263273 0.36001655 0.72996855
-1.5180079 0.35792533 0.73171461
-1.5060266 0.36023301 0.72866201
-1.4950353 0.35855892 0.72996169
-1.4878622 0.35890824 0.72925079
-1.470806 0.35948527 0.72780758
-1.4685723 0.35797808 0.72906047
-0.67843413 0.35430083 0.72468549
-0.65448117 0.35366017 0.72333425
-0.40937394 0.35894263 0.72607589
-0.40219927 0.35944957 0.72941399
-0.39435452 0.3619099 0.73146486
-0.3847917 0.36451158 0.7340008
-0.37506279 0.36630151 0.73636955
-0.36522812 0.36756951 0.73841894
-0.35875118 0.36863488 0.73933434
-3.3753901 0.37415871 0.73776764
-3.3756456 0.37623429 0.73766303
-2.0909197 0.37279329 0.73368561
-2.0866382 0.37143376 0.73460555
-2.074183 0.3744179 0.73036748
-2.0684187 0.37298137 0.73207241
-2.0572443 0.37387779 0.7309972
-2.0427828 0.371995 0.73316997
-2.0371249 0.37190413 0.73343021
-2.0236416 0.37282795 0.73266125
-2.0159712 0.37115857 0.73417515
-1.9976422 0.3738566 0.73137987
-1.9860314 0.37265581 0.73284376
-1.975612 0.37358153 0.7315414
-1.9662172 0.37355506 0.73166776
-1.9578238 0.37439495 0.7303344
-1.9441252 0.37201872 0.73316813
-1.9335921 0.37348932 0.73169768
-1.9249475 0.37158111 0.73331332
-1.9172176 0.37224907 0.73249716
-1.9057484 0.3723219 0.73084933
-1.8955318 0.37158686 0.72916245
-1.8801912 0.36893165 0.72656542
-1.6166019 0.3592793 0.72342795
-1.6112878 0.36003852 0.72522378
-1.6027979 0.36399648 0.72344851
-0.37161261 0.37174425 0.73222381
-0.36462346 0.3723869 0.73324943
-0.35801214 0.3713032 0.7368589
-3.3781695 0.39038733 0.73437005
-3.37707 0.38503587 0.73573804
-2.1130059 0.37666407 0.73222512
-2.1075613 0.37611496 0.73185152
-2.0957794 0.37711275 0.72848672
-2.0847816 0.37677345 0.7280435
-2.0628173 0.37729716 0.72706699
-2.0584648 0.37617511 0.72830832
-2.047998 0.37513193 0.73034698
-2.035362 0.37765694 0.72754884
-2.0268579 0.37531024 0.73011184
-2.0132132 0.37797847 0.72671121
-2.0056856 0.37682799 0.72813946
-1.9945328 0.37585655 0.72943878
-1.9875675 0.37861028 0.72640884
-1.9665099 0.37761363 0.72752142
-1.9557686 0.37546903 0.72931939
-1.9406756 0.37743562 0.72764748
-1.9340445 0.37602389 0.72912669
-1.9216642 0.37802696 0.72690529
-1.9176095 0.37657368 0.72781312
-1.8976364 0.37626025 0.72627586
-3.3797779 0.39728445 0.73255873
-2.1129043 0.37813061 0.7294209
-2.1053617 0.37928289 0.72549015
-3.3975778 0.41154712 0.74277395
-1.5119336 1.078584 0.73290992
-1.5092262 1.0728755 0.7350117
-1.5134743 1.0866417 0.73617655
-1.5209661 1.099938 0.73222429
-1.5172433 1.0949538 0.73523134
-1.5217482 1.1063862 0.73531252
-1.5193092 1.1051059 0.73860985
-1.5213264 1.1100194 0.73883891
-1.5230188 1.1141722 0.74029088
-1.0604953 -0.27166983 0.74416465
-1.0558014 -0.27350849 0.7496084
-1.0529883 -0.27407184 0.75263196
-1.0583363 -0.26501501 0.74693692
-1.0531939 -0.26453573 0.75258052
-1.0603353 -0.25007278 0.74449259
-1.0582924 -0.25535974 0.74666196
-1.0536802 -0.2582503 0.75250912
-1.0639939 -0.24418008 0.74091887
-1.0625434 -0.24326348 0.74276799
-1.0585983 -0.25019777 0.7467438
-1.0649235 -0.22982948 0.74316698
-1.0638052 -0.23426959 0.74313343
-1.0581863 -0.23071849 0.75182796
-1.0670556 -0.22527955 0.74166167
-1.064471 -0.22364967 0.74579161
-1.0587758 -0.22788067 0.7518484
-1.0575813 -0.22455435 0.75435674
-1.0686786 -0.21436904 0.74261612
-1.0656503 -0.21490173 0.74674773
-1.0722462 -0.20168868 0.74168438
-1.0666635 -0.20588046 0.74787831
-1.072955 -0.19367053 0.74279958
-1.0692596 -0.19617525 0.74774045
-1.0779238 -0.18367828 0.73848808
-1.0740033 -0.18449895 0.74423015
-1.0702479 -0.18781663 0.74919868
-1.0797129 -0.17707115 0.7381773
-1.0753305 -0.17539376 0.74567509
-1.0808345 -0.16244341 0.74221671
-1.0778803 -0.16554469 0.74563348
-1.0827191 -0.15393658 0.74313039
-1.0785451 -0.15761258 0.74778265
-1.0873804 -0.14367735 0.7402879
-1.0836375 -0.14456293 0.74526954
-1.0905594 -0.13337018 0.74055094
-1.0862912 -0.13580546 0.74498057
-1.0920093 -0.12728918 0.74175441
-1.0898259 -0.12755427 0.7449227
-1.1377519 -0.059631437 0.74751115
-1.1363353 -0.060772669 0.74865675
-1.147164 -0.050009027 0.7409842
-1.1440289 -0.053525694 0.74316049
-1.1658137 -0.029549271 0.73239809
-1.1610482 -0.033819228 0.73533684
-1.1556786 -0.038918551 0.73945451
-1.151215 -0.042249423 0.74454522
-0.65452337 -0.046554882 0.74475032
-0.65290946 -0.04629476 0.74762923
-1.1642556 -0.027949521 0.73638201
-1.1591552 -0.031369619 0.74209636
-1.1548921 -0.034259394 0.74792987
-1.1495386 -0.041034561 0.74901319
-1.1475279 -0.039470043 0.75468189
-0.65883464 -0.032997932 0.74096012
-0.65836972 -0.032127149 0.74251008
-1.1675776 -0.020749282 0.73843187
-1.162973 -0.024036493 0.74336219
-1.1595969 -0.027344709 0.74610996
-1.1557108 -0.030566053 0.74996048
-1.1511682 -0.035426412 0.75281042
-0.66247267 -0.021848118 0.74105757
-0.66008234 -0.027438462 0.74243325
-1.179342 -0.0074712057 0.73417139
-1.1752303 -0.0089955367 0.73906469
-1.1700716 -0.012726407 0.74310583
-1.1661018 -0.017963367 0.74338436
-1.1624348 -0.018694857 0.74961734
-1.1587671 -0.023154462 0.75186914
-1.1783837 -0.0021263433 0.74032372
-1.1771327 -0.00045015605 0.74322206
-1.1697164 -0.0075185588 0.74767524
-1.1659092 -0.010774459 0.75109613
-1.1828094 0.0060938224 0.74148166
-1.178406 0.0040715998 0.74567288
-1.1726824 -0.00039579716 0.74972981
-1.1886481 0.016616486 0.74323887
-1.185915 0.014594452 0.7446453
-1.181141 0.011390594 0.74874866
-1.1751443 0.006987636 0.75312352
-1.1984526 0.031215303 0.74642503
-1.1936828 0.025110014 0.74431223
-1.1891011 0.02196377 0.74689871
-1.1848885 0.02086385 0.75241184
-1.2099406 0.039099894 0.74037957
-1.2031494 0.036354057 0.74504125
-1.1974041 0.032090452 0.74616998
-1.1926426 0.030478206 0.75061089
-0.6771158 0.039786544 0.73953485
-0.6740737 0.038020451 0.7446667
-0.67196357 0.038189173 0.74885535
-1.2246679 0.049111046 0.73885548
-1.2130874 0.04610981 0.74386263
-1.2056485 0.044263247 0.74811453
-1.199856 0.039103515 0.74896336
-1.1969148 0.0349501 0.74874878
-0.67774683 0.042535268 0.73914552
-0.6757223 0.044660416 0.7436527
-0.6729241 0.04255167 0.74832076
-1.2292036 0.06022013 0.74636173
-1.2250299 0.054950524 0.74344623
-1.2162519 0.052593086 0.74578387
-1.2112393 0.051312894 0.74892068
-0.67668444 0.054302718 0.74629581
-0.6744498 0.053522948 0.75074619
-1.2273737 0.062967166 0.7502383
-1.2179353 0.059804447 0.7513628
-0.67828906 0.062523618 0.74541223
-0.69222736 0.12639287 0.74427122
-0.69436669 0.13373423 0.74341023
-0.69219321 0.13377696 0.74666977
-0.69487971 0.14021346 0.74320596
-0.69344103 0.14246275 0.74391228
-1.0431104 0.25195274 0.73898423
-1.0411894 0.25195873 0.73839843
-0.97625178 0.24671337 0.74800819
-0.97029692 0.24453369 0.7520929
-0.96831661 0.24296947 0.75381804
-1.0507258 0.25352222 0.7467317
-1.0467844 0.25406742 0.74292326
-1.0337582 0.26138499 0.73896599
-1.0268053 0.26070419 0.73690856
-1.0161573 0.25996315 0.73720574
-1.0085843 0.25934982 0.73879308
-0.97816896 0.25421765 0.74926746
-0.9739092 0.25734118 0.75465113
-0.57604045 0.27106738 0.75849831
-0.57446009 0.26883435 0.75954628
-0.5411247 0.26768872 0.75773507
-0.53530139 0.2665129 0.75807816
-0.52779883 0.26590639 0.75874937
-0.49528044 0.26819152 0.75979173
-0.48890099 0.26716557 0.76149052
-0.48611522 0.26775971 0.75999457
-1.136953 0.27739057 0.74866861
-1.0486197 0.26253635 0.74814713
-1.0341114 0.26475576 0.74077821
-1.0260853 0.26615176 0.73975879
-1.0158824 0.26169229 0.73832387
-1.0011542 0.26520061 0.74318159
-0.97827047 0.2615321 0.75157511
-0.97468644 0.26207554 0.75562584
-0.57730347 0.27381903 0.75519067
-0.57407951 0.27362856 0.75308752
-0.56445283 0.27339157 0.7517879
-0.55439937 0.27237719 0.75306791
-0.54556108 0.27267751 0.75313658
-0.53448552 0.27148247 0.75353456
-0.52501881 0.27343339 0.75263232
-0.51614743 0.27296278 0.75414962
-0.50455314 0.27394125 0.75358462
-0.4964045 0.27436632 0.75399542
-0.48957339 0.27491057 0.75532663
-0.48298919 0.27446476 0.75725377
-0.47465038 0.27696547 0.75887334
-1.1310216 0.2834847 0.74787891
-1.126386 0.28491494 0.75124145
-1.0496072 0.27263671 0.75243169
-1.0451988 0.27296847 0.7484532
-1.0329436 0.27754706 0.74504739
-1.0247027 0.27765572 0.74451923
-1.0132961 0.27559793 0.74443406
-1.004411 0.27350408 0.74548709
-0.99532938 0.27248034 0.74726546
-0.98780042 0.27342388 0.7502262
-0.98121858 0.27103281 0.75338089
-0.57499892 0.27764872 0.74796367
-0.56355673 0.27770519 0.74739921
-0.5581699 0.27664471 0.74883419
-0.52421439 0.27928326 0.74836618
-0.51409835 0.2803672 0.74737751
-0.50664663 0.27987102 0.74826658
-0.48690656 0.28144291 0.75063401
-0.4816699 0.28112781 0.75306422
-0.47510213 0.28269228 0.75372773
-1.1229892 0.29090318 0.74765164
-1.0416322 0.2872048 0.74876082
-1.0331004 0.28585544 0.74731094
-1.0250714 0.2839368 0.74577135
-1.018245 0.28321534 0.74627072
-1.0038842 0.28147355 0.74715352
-0.99615729 0.28092989 0.74931109
-0.99002481 0.27969474 0.75180668
-0.97793192 0.28036445 0.76065588
-0.59186703 0.29151079 0.75014055
-0.5859372 0.29007953 0.74894953
-0.5804556 0.28783309 0.7483148
-0.56057727 0.28430453 0.74375314
-0.55080271 0.28691411 0.74192542
-0.54527831 0.28482431 0.74477381
-1.1201823 0.29534268 0.74533516
-1.0438808 0.29629469 0.74859202
-1.0350004 0.29520079 0.74660587
-1.0250179 0.2965 0.74592513
-1.0174001 0.29642347 0.74621129
-0.98712701 0.29754707 0.75591403
-0.59301525 0.29543832 0.7452262
-0.58539909 0.2938883 0.74329752
-0.57607031 0.29103205 0.74174958
-0.56435174 0.28862944 0.7393468
-0.55391246 0.29009631 0.73906994
-0.54481494 0.29014102 0.74000758
-0.53616291 0.29152715 0.74004149
-0.52404803 0.29048631 0.74162823
-0.514512 0.29135373 0.74109411
-0.50450754 0.29190326 0.74149817
-0.4947474 0.29273641 0.74282718
-0.46161243 0.2989507 0.74892795
-1.6827652 0.31739944 0.7525146
-1.6742759 0.3205176 0.74851614
-1.6687467 0.32109565 0.74965984
-1.661481 0.32194966 0.7509132
-1.1133262 0.30422577 0.74337333
-1.0911424 0.30884412 0.7489168
-1.0425625 0.30274382 0.74714786
-1.034272 0.30500659 0.74478859
-1.0244672 0.30455822 0.74473304
-1.0168579 0.30400771 0.74516433
-0.62609762 0.31177795 0.75125414
-0.58368009 0.29730237 0.73782432
-0.57316393 0.2958326 0.73487389
-0.56406146 0.29463547 0.73436964
-0.55450392 0.29540458 0.73414767
-0.54775262 0.29574451 0.73494697
-0.53245133 0.29666287 0.73533255
-0.52447021 0.29562601 0.73656285
-0.51463449 0.29581973 0.73682511
-0.50359893 0.29760131 0.73650724
-0.49350798 0.29769981 0.7389912
-0.48313257 0.2998932 0.7398687
-0.47237971 0.30191594 0.74184465
-0.46328247 0.30321106 0.74448448
-0.45627475 0.30465463 0.74628997
-0.44367018 0.30876082 0.74822289
-0.4368057 0.31055427 0.75030273
-0.42888612 0.31312701 0.75318038
-0.4227311 0.3150565 0.75623369
-1.7457101 0.31946105 0.7505551
-1.7366605 0.32030392 0.74643523
-1.7235546 0.31929681 0.7438345
-1.7181163 0.31844774 0.74578291
-1.7030973 0.31895649 0.74577165
-1.6951659 0.32003742 0.74552518
-1.6850002 0.32077083 0.74550653
-1.6767923 0.32073033 0.74816275
-1.6669427 0.32347286 0.74657524
-1.6577704 0.32448295 0.74954182
-1.6538223 0.3274065 0.74573904
-1.3399667 0.32478097 0.75138545
-1.3357916 0.32360074 0.7523973
-1.3255055 0.32263443 0.75280154
-1.2825727 0.32321858 0.7513783
-1.2754335 0.32488292 0.75068307
-1.2675012 0.32702637 0.74821115
-1.109144 0.3117452 0.74056083
-1.1022476 0.3128204 0.74340701
-1.0938888 0.31368291 0.74513674
-1.0845433 0.31599456 0.74527371
-1.0756012 0.3153407 0.7461127
-1.0647153 0.31518039 0.74588108
-1.0550432 0.3153154 0.74447304
-1.0449082 0.31429717 0.74401951
-1.0344574 0.31405553 0.7421968
-1.0255533 0.31309235 0.74181783
-1.0157433 0.31317464 0.74166423
-1.0059949 0.31624639 0.73948514
-0.88489735 0.31606361 0.74396646
-0.85294801 0.31757036 0.74735248
-0.8469792 0.31751832 0.74848163
-0.83569616 0.31908226 0.74982208
-0.73346114 0.32529554 0.75694335
-0.71981883 0.32406986 0.75610024
-0.71560735 0.32403272 0.75579512
-0.7047168 0.32455841 0.75422716
-0.69289213 0.3242867 0.75431865
-0.68165332 0.32472315 0.75377566
-0.67513317 0.32431248 0.75388861
-0.66734976 0.32298896 0.75479823
-0.65511847 0.3230893 0.7539084
-0.64424139 0.32235307 0.75243002
-0.63310361 0.3179135 0.74861991
-0.62587845 0.31545836 0.74560761
-0.61965442 0.31250721 0.74556577
-0.53050518 0.30209959 0.73087913
-0.52586269 0.301283 0.73155373
-0.5004862 0.30311856 0.73262936
-0.49430558 0.30333468 0.73366547
-0.48181689 0.30546123 0.73498034
-0.47256058 0.30751026 0.73638409
-0.46276948 0.30945078 0.73877639
-0.45291212 0.31057799 0.74212754
-0.44410089 0.31408039 0.74337023
-0.4376795 0.31611487 0.74549341
-0.42711049 0.31934547 0.74909943
-0.41939053 0.32075283 0.75322753
-0.41238928 0.32336137 0.75489199
-2.059607 0.3437072 0.76003218
-2.0451803 0.3401489 0.76278174
-1.789976 0.32813376 0.74257362
-1.728413 0.32087258 0.74081916
-1.6634548 0.3257477 0.74428767
-1.6575253 0.32690817 0.74606448
-1.6458385 0.33006102 0.74699277
-1.6394167 0.33335581 0.74518198
-1.4377429 0.33206549 0.75245726
-1.4163895 0.33136517 0.75169402
-1.4036949 0.3323625 0.74961215
-1.3956817 0.33109394 0.75047511
-1.3870534 0.33038098 0.75038415
-1.3659307 0.32842794 0.750175
-1.353817 0.33029455 0.74660689
-1.3439846 0.32768553 0.74853188
-1.3346341 0.32794291 0.74780649
-1.3252703 0.32786635 0.74737835
-1.3152877 0.32649338 0.74796784
-1.306183 0.32602605 0.74775648
-1.2940956 0.32737422 0.74617285
-1.2842671 0.32622668 0.74683779
-1.2749313 0.32713753 0.7478525
-1.2647033 0.32854751 0.74633324
-1.1078829 0.3171832 0.73663485
-1.1018635 0.31880257 0.73801672
-1.0942891 0.32037571 0.73934567
-1.0829476 0.32154119 0.74086541
-1.0746969 0.32111517 0.74196416
-1.0657363 0.32245746 0.74155474
-1.0546368 0.32217377 0.74065107
-1.0453231 0.32070401 0.74081331
-1.0370252 0.32076296 0.73979163
-1.0246404 0.3197946 0.73813623
-1.016363 0.31949815 0.73814398
-1.0058573 0.31845546 0.73843056
-0.99991196 0.31876051 0.73831809
-0.8816821 0.31933355 0.74119407
-0.87877542 0.32005784 0.74042487
-0.85131109 0.3217032 0.74314678
-0.84434432 0.32287723 0.74402469
-0.83480608 0.32313061 0.74334759
-0.82694924 0.32390738 0.7417199
-0.73225969 0.32860956 0.75320917
-0.72382593 0.32961988 0.75084001
-0.71557552 0.32899144 0.75061226
-0.70510805 0.32862541 0.75005889
-0.69374782 0.32905176 0.74940264
-0.68520927 0.32916206 0.74930859
-0.67572558 0.32879639 0.74937284
-0.66503066 0.32890084 0.74865144
-0.65385139 0.32799223 0.74879718
-0.64329761 0.32665733 0.74502289
-0.63520736 0.32426208 0.74309909
-0.62754899 0.32046923 0.74086618
-0.44836095 0.31510502 0.74091738
-0.44316909 0.31667858 0.74221408
-0.43499875 0.31864935 0.74562705
-0.42347902 0.32568726 0.74695456
-0.41745931 0.3279652 0.74804723
-0.41016489 0.32939687 0.75097901
-3.3833735 0.33697292 0.74153817
-2.07392 0.34928468 0.75713289
-2.0626299 0.34695721 0.75758493
-2.0580103 0.34443423 0.75962067
-1.6541384 0.32964942 0.74373198
-1.635174 0.33554032 0.74497342
-1.6263055 0.33777946 0.7466405
-1.6148354 0.33948418 0.7490471
-1.6037812 0.34255037 0.74786824
-1.5979837 0.34058273 0.7512964
-1.5896626 0.34280875 0.7495892
-1.5752158 0.3403897 0.75209504
-1.5634576 0.34089789 0.75105327
-1.5387702 0.34098288 0.75011927
-1.5278591 0.34020802 0.75025016
-1.5153192 0.33914602 0.75084388
-1.5047706 0.3397997 0.74987727
-1.4943085 0.33912003 0.75002044
-1.4832778 0.33847257 0.7498582
-1.4748499 0.33894435 0.74861175
-1.4573716 0.3380664 0.74830669
-1.4415005 0.33651441 0.7483632
-1.435192 0.33677116 0.74774146
-1.4242903 0.33680329 0.74693614
-1.415355 0.33681968 0.74625355
-1.4044009 0.33639464 0.74572611
-1.3944997 0.33600152 0.74537355
-1.3853149 0.33550349 0.74483168
-1.375078 0.33515179 0.74414271
-1.3642408 0.33410761 0.74375802
-1.3547158 0.33403468 0.74263561
-1.3470362 0.33341503 0.74271792
-1.3342786 0.33297426 0.74289817
-1.3249249 0.33134666 0.74416441
-1.314146 0.3313944 0.74302512
-1.304112 0.33204654 0.7417739
-1.2951654 0.33237216 0.74136853
-1.2864522 0.33146989 0.74199569
-1.2674745 0.33163062 0.7417416
-1.0743123 0.32825914 0.73615074
-1.0550065 0.32730985 0.73685294
-1.046247 0.32828543 0.73603052
-0.8497237 0.32697311 0.73845226
-0.84322363 0.32757655 0.74000239
-0.83716583 0.33114862 0.73861027
-0.82869393 0.32847306 0.73734671
-0.76088834 0.33659455 0.74998242
-0.75443906 0.33738476 0.74794406
-0.74666947 0.33716983 0.74666876
-0.73825449 0.33615381 0.74608755
-0.71804756 0.33594623 0.74407941
-0.41345698 0.33467928 0.74501419
-0.40768963 0.33637741 0.74638283
-3.3783715 0.34550035 0.74117845
-2.0915198 0.35748523 0.75282741
-2.0708997 0.35123342 0.75507367
-2.0070498 0.35131428 0.75374001
-1.9919695 0.35370404 0.75220722
-1.9734122 0.35340199 0.75261194
-1.9612064 0.35469541 0.75126141
-1.95795 0.35182849 0.75419825
-1.9461606 0.3543936 0.75169688
-1.926623 0.35269189 0.75212598
-1.8905741 0.35205019 0.74789125
-1.639039 0.33693257 0.74137068
-1.6313089 0.33957708 0.74264127
-1.6206967 0.34389153 0.73993677
-1.6154763 0.34291235 0.74421084
-1.6046442 0.34580451 0.74398774
-1.5936337 0.34624133 0.74557519
-1.5829608 0.34672192 0.74564153
-1.5743071 0.34672105 0.74554604
-1.5663239 0.34630883 0.7455917
-1.5558357 0.34520963 0.74642289
-1.5445845 0.3442933 0.74690932
-1.5345494 0.34501511 0.74554712
-1.5251232 0.34555918 0.74471653
-1.5158861 0.34516403 0.74471545
-1.5055517 0.34497303 0.74464345
-1.4949298 0.34406 0.74503458
-1.4853406 0.34422535 0.74431312
-1.476187 0.3446047 0.74318731
-1.4656609 0.34388486 0.74302107
-1.4583528 0.34263775 0.74378175
-1.444235 0.34362644 0.74191338
-1.4378059 0.34203327 0.74290329
-1.42498 0.34301051 0.74114639
-1.4154519 0.34032336 0.74293315
-1.4042144 0.34123191 0.74111867
-1.3938071 0.34110811 0.74025542
-1.384619 0.33981252 0.74046957
-1.3732147 0.34031004 0.73851144
-1.3672178 0.33967575 0.73833007
-1.3538953 0.33897716 0.73767543
-1.2927125 0.3369028 0.73712581
-1.2863537 0.33878511 0.73538673
-0.75394553 0.34142616 0.74281359
-0.74477476 0.34117198 0.74077803
-0.73597383 0.34034258 0.74128032
-0.72447962 0.3406741 0.73967987
-0.71541542 0.33962739 0.74004239
-0.7058202 0.33977982 0.73980927
-0.69501424 0.33953363 0.74027568
-0.68460655 0.34021825 0.73954314
-0.67516577 0.3398838 0.7398631
-0.66459644 0.33897117 0.73976547
-0.65577286 0.3383038 0.73926449
-0.647578 0.33727023 0.73896974
-0.40337861 0.3437005 0.74279994
-0.3954331 0.34567899 0.74510694
-0.38376266 0.34872654 0.74853355
-0.37874943 0.3496027 0.75016505
-3.3756897 0.35515904 0.74076045
-3.3750565 0.35971746 0.74171537
-2.0905888 0.35819343 0.75225681
-2.0831904 0.35833436 0.7505393
-2.0746431 0.35751927 0.7492004
-2.0620139 0.35892716 0.74555147
-2.0565028 0.35545963 0.74885094
-2.0443935 0.35908884 0.74501348
-2.0380564 0.35485029 0.74986511
-2.0247483 0.3559567 0.74824387
-2.0130038 0.358136 0.74633527
-2.0089281 0.35603434 0.74914145
-1.9960506 0.35826159 0.74714053
-1.9831071 0.35875985 0.74689591
-1.975675 0.35672268 0.74901438
-1.9639217 0.35934567 0.74654901
-1.9514581 0.35914993 0.74667144
-1.9473196 0.35696253 0.74925047
-1.9358064 0.35901797 0.74647456
-1.9255897 0.35666484 0.74815071
-1.8956678 0.35468757 0.74565154
-1.8877226 0.35748538 0.74241966
-1.629377 0.34306678 0.73890615
-1.6203591 0.34708214 0.73811185
-1.6136024 0.34748596 0.73973656
-1.6038291 0.34866944 0.74098331
-1.5951765 0.35082275 0.74009341
-1.585937 0.3499074 0.74244136
-1.5755937 0.35245219 0.73961532
-1.5664718 0.34877002 0.74301368
-1.5558509 0.35019389 0.74121702
-1.5445845 0.3488645 0.74210715
-1.5357553 0.34998491 0.74045956
-1.5222913 0.35100818 0.73901081
-1.5160435 0.3500078 0.73986846
-1.5056468 0.34917742 0.74019897
-1.4975148 0.34969279 0.73946255
-1.481529 0.34906343 0.73902094
-1.4673395 0.3476854 0.73938799
-0.72162175 0.34493524 0.73494196
-0.71720368 0.34522122 0.7345292
-0.70209849 0.34455022 0.73523194
-0.67804784 0.34480438 0.73502201
-0.65346891 0.34361336 0.73357815
-0.65034837 0.34182948 0.73474354
-0.40169895 0.35014579 0.7379877
-0.39386714 0.35145637 0.74112868
-0.38414979 0.35384852 0.74387747
-0.37550682 0.35571009 0.74644011
-0.36613947 0.35760003 0.74787927
-0.35612765 0.35936302 0.74837404
-3.3747842 0.3625769 0.74051219
-2.108207 0.36689317 0.74693251
-2.0933366 0.36600786 0.74370402
-2.0858214 0.36462954 0.74381179
-2.078573 0.36238605 0.74568778
-2.0587025 0.36095309 0.74364007
-2.0437539 0.3634651 0.74108559
-2.0348449 0.36060876 0.74398524
-2.0248799 0.36359221 0.74097729
-2.0153949 0.36131522 0.74360377
-2.0064738 0.36339572 0.74257588
-1.9942259 0.36361051 0.74198395
-1.9872965 0.36210281 0.74376011
-1.9653862 0.36304459 0.74250209
-1.9560136 0.36172256 0.74424917
-1.9449431 0.36264873 0.74323273
-1.9363756 0.3625595 0.74311274
-1.9249753 0.36240146 0.74228752
-1.9154265 0.36188743 0.74226916
-1.9043221 0.36145049 0.74101716
-1.8970804 0.35856846 0.74365163
-1.626386 0.34830198 0.73348439
-1.6210938 0.34925401 0.73586881
-0.38058439 0.35995135 0.73999286
-0.37432495 0.36096203 0.74181956
-0.36535504 0.36289749 0.74326742
-0.3550491 0.3648316 0.74418515
-0.34895462 0.3621954 0.74784207
-3.3863759 0.3751893 0.75306934
-3.3760402 0.3760376 0.7386229
-2.1158762 0.37097004 0.74227905
-2.1070914 0.36901584 0.742459
-2.0958166 0.36920092 0.74015826
-2.0854559 0.36786327 0.7406922
-2.0779727 0.36627388 0.74173069
-2.0647643 0.36725345 0.73839766
-2.0544639 0.36608508 0.73851466
-2.0480986 0.36728999 0.73754281
-2.0321865 0.36769313 0.73703516
-2.0299625 0.36852688 0.7372787
-2.0116911 0.36938354 0.73607832
-2.0052607 0.36849609 0.7369616
-1.9962456 0.36675698 0.73899794
-1.9845419 0.36694163 0.73894697
-1.9750583 0.36744711 0.73806089
-1.9646986 0.36580119 0.73995072
-1.9575607 0.36918131 0.73627192
-1.9400575 0.36808339 0.7374602
-1.9382561 0.36838824 0.73718101
-1.9144595 0.3676222 0.73681396
-1.9068139 0.36534733 0.73808616
-3.3899014 0.38979816 0.74975926
-3.3763299 0.37960732 0.73736465
-3.3767693 0.38122493 0.73746467
-2.1230371 0.37469795 0.73854053
-2.1049907 0.37403744 0.73498553
-2.0102539 0.37223151 0.73324722
-3.3927696 0.39923608 0.74710709
-3.3923798 0.39757836 0.7476154
-3.3956139 0.40646452 0.74423814
-3.3949094 0.40414554 0.74573725
-3.3982136 0.41509369 0.74193645
-3.3976722 0.41405639 0.74284023
-3.3993807 0.42034295 0.74166918
-1.5097864 1.0873477 0.74446309
-1.5072104 1.0834014 0.7466085
-1.5127498 1.0949525 0.74480855
-1.5091773 1.0932451 0.7499693
-1.516131 1.1042746 0.74469483
-1.5120978 1.1001256 0.74991852
-1.5244248 1.1169641 0.74197149
-1.5203452 1.1137006 0.74656659
-1.5265971 1.1237925 0.74557936
-1.9050192 1.3777996 0.75007588
-1.8998605 1.3792624 0.75181115
-1.8970734 1.3789359 0.74698424
-1.8892705 1.3825319 0.75291532
-1.8931217 1.3796836 0.74489152
-1.0463399 -0.28329039 0.75872934
-1.0547034 -0.27759686 0.75064963
-1.0484582 -0.27503672 0.75750369
-1.0484611 -0.26541254 0.75836146
-1.0588336 -0.24951437 0.74653548
-1.0526434 -0.25359714 0.75470275
-1.0499823 -0.25761849 0.75772446
-1.0571337 -0.24361689 0.75011766
-1.0535303 -0.24513674 0.75496382
-1.0631071 -0.23286247 0.744618
-1.0597289 -0.23454101 0.74864608
-1.0548514 -0.23518896 0.75526166
-1.0519688 -0.2334698 0.75997198
-1.0606548 -0.22536986 0.75026536
-1.0567747 -0.22464104 0.75566322
-1.0532621 -0.22698544 0.75955033
-1.061884 -0.21641298 0.7516284
-1.0584337 -0.21592967 0.75598723
-1.0545713 -0.21880099 0.76032454
-1.06323 -0.20373757 0.75347567
-1.0594777 -0.20628422 0.75765818
-1.0640973 -0.19497083 0.75476927
-1.061396 -0.19787008 0.75775194
-1.0704256 -0.18411298 0.75007302
-1.0666704 -0.18496686 0.75500518
-1.0704104 -0.17451112 0.75337416
-1.0681897 -0.17593974 0.75593239
-1.0724443 -0.16467066 0.75413769
-1.069205 -0.16939145 0.75676882
-1.0784582 -0.15350214 0.74943644
-1.0741568 -0.15508857 0.75496268
-1.0697731 -0.15735795 0.76024318
-1.0795907 -0.14382696 0.75123924
-1.0766554 -0.1453369 0.75495523
-1.081319 -0.13695386 0.75167698
-1.0759381 -0.13977915 0.7581746
-1.1377696 -0.058200225 0.75158203
-1.1326556 -0.063050106 0.75536275
-1.1285272 -0.066807568 0.75832558
-1.1454943 -0.048696723 0.74834865
-1.140362 -0.052561037 0.75452918
-1.1480196 -0.042410202 0.75196624
-1.1457869 -0.043819737 0.75516599
-1.151652 -0.034615424 0.75470209
-1.1495399 -0.036853947 0.75596333
-1.1484118 -0.036853343 0.75615382
-1.1607962 -0.020816742 0.75273377
-1.1555858 -0.027085347 0.75538117
-1.152719 -0.027573207 0.75904614
-1.1501914 -0.030367358 0.76074201
-1.1716335 -0.0063486821 0.74860877
-1.1673523 -0.011218414 0.75022155
-1.1626084 -0.01478748 0.75532472
-1.1588552 -0.015264502 0.76079041
-1.1559992 -0.022659633 0.75845283
-1.1506361 -0.025595702 0.76457
-1.1728613 -0.00071263558 0.75203037
-1.1720542 -0.0018703871 0.75184721
-1.1626632 -0.0094177993 0.75912565
-1.1773015 0.0091645867 0.75378656
-1.1744974 0.007424043 0.75705713
-1.1702394 0.0029166136 0.75773627
-1.1658356 -0.0028961152 0.75969911
-1.1859704 0.022282094 0.75392735
-1.1821369 0.016398596 0.75277793
-1.1771146 0.01281469 0.75621039
-1.1728462 0.0097681191 0.76081985
-1.1948426 0.032511957 0.75183535
-1.1904079 0.027553717 0.75261199
-1.1858642 0.024985449 0.75637269
-1.1803652 0.020489702 0.75935584
-1.2063015 0.042812642 0.74760449
-1.1997125 0.040988274 0.75290656
-1.1948389 0.03550072 0.7540791
-1.189395 0.032043356 0.75716776
-1.1854124 0.029279239 0.76069534
-1.2086371 0.047827851 0.74922943
-1.203613 0.046483438 0.75329906
-1.1980397 0.043483745 0.75674862
-1.1918557 0.038908131 0.76021004
-1.2292393 0.063784502 0.74956822
-1.2222459 0.060214255 0.74982333
-1.2131675 0.05725589 0.75316596
-1.2062337 0.052819546 0.75599301
-1.1999611 0.049060393 0.7597906
-0.67436528 0.058170758 0.75249177
-1.2292913 0.068189092 0.75244087
-1.2241287 0.066582307 0.75403798
-1.2166499 0.063284852 0.75564718
-1.2101753 0.061148703 0.75996435
-0.6734888 0.061038878 0.75566745
-1.2296736 0.073492326 0.75645161
-1.2282149 0.073597752 0.75891817
-1.2183363 0.068610795 0.76032668
-1.2144222 0.068179771 0.76359928
-0.68248624 0.10864162 0.75597012
-0.67812449 0.10713585 0.76380855
-0.68640596 0.11807212 0.75225264
-0.68448007 0.11376048 0.75428522
-0.68777752 0.12371214 0.75177133
-0.68638027 0.12535623 0.75482017
-0.69093537 0.13948649 0.75281978
-0.68752742 0.13031839 0.75476706
-0.69162136 0.14217612 0.75251001
-0.69052541 0.14174646 0.75421172
-0.97161657 0.24798743 0.75377893
-0.96750259 0.24746449 0.75663549
-0.96662694 0.24512844 0.75598413
-0.57560045 0.26258287 0.7646516
-0.57230496 0.25886244 0.76758206
-0.56432211 0.25820786 0.76646912
-0.55448878 0.25625411 0.76809901
-0.53495508 0.25759366 0.76717114
-0.52605331 0.25633207 0.76811606
-0.51483226 0.25749448 0.76796377
-0.48859417 0.25954428 0.76905704
-0.48522705 0.25946319 0.76818395
-0.47947112 0.25919056 0.77054089
-1.0367249 0.26266205 0.74085879
-0.97325057 0.25473836 0.75400352
-0.96913975 0.25441703 0.75830674
-0.57363379 0.2671127 0.76294327
-0.57283127 0.26368538 0.76229453
-0.56441236 0.26229373 0.76270986
-0.55514938 0.26199013 0.76308388
-0.54597175 0.26131484 0.76419163
-0.53697997 0.26192588 0.7627598
-0.52372545 0.26313022 0.76208144
-0.51530004 0.26233935 0.76390254
-0.50567776 0.26344967 0.76415813
-0.49739978 0.26224566 0.76560277
-0.49013397 0.26254681 0.7657693
-0.48476025 0.26362088 0.76421285
-0.47718641 0.26597181 0.76711857
-1.1383414 0.27474928 0.7580654
-1.1333463 0.27687186 0.76018351
-1.1279151 0.27979356 0.76347578
-0.97523403 0.26480526 0.75665629
-0.97071975 0.26268017 0.760203
-0.57205582 0.26971933 0.75748533
-0.56487042 0.26800126 0.75706911
-0.5575133 0.26756784 0.75773579
-0.54671818 0.2673322 0.75838584
-0.51275545 0.26820737 0.7592091
-0.50616068 0.2681576 0.75968748
-0.50048888 0.26809075 0.75974989
-0.47898772 0.26994893 0.76326722
-0.4744834 0.27268276 0.76244009
-1.1289778 0.28050861 0.75778157
-1.1242795 0.28400025 0.7581619
-1.0551403 0.27699748 0.75730163
-1.0468054 0.27797598 0.75265545
-1.0384939 0.27963087 0.74795371
-1.0132887 0.27997044 0.74593598
-1.0029391 0.27952304 0.74800169
-0.99262953 0.27809933 0.75198001
-0.9849245 0.27465007 0.75570941
-0.97737116 0.27274266 0.75859499
-0.97099429 0.2721647 0.76299512
-0.96884972 0.27434328 0.76670837
-0.58418584 0.27992132 0.76000792
-0.57879263 0.27878404 0.75837493
-0.56860012 0.27506903 0.7561304
-0.54448473 0.27466547 0.75429738
-0.53710896 0.27496049 0.75438058
-1.1237987 0.2853637 0.7573545
-1.1219007 0.28793323 0.75423682
-1.0543199 0.28482318 0.75611627
-1.0448197 0.2857118 0.75108314
-1.0361354 0.28579587 0.74791312
-1.0247874 0.28799176 0.74654377
-1.0141423 0.28779578 0.74739581
-1.0034014 0.28750092 0.74912506
-0.99351186 0.28715637 0.75306243
-0.98640722 0.28478375 0.7575289
-0.97807974 0.28317186 0.76325858
-0.97329378 0.27920911 0.7637738
-0.97012061 0.28125203 0.76829648
-0.59035283 0.28766105 0.75457221
-0.58507562 0.28509361 0.75450373
-0.57625496 0.28211269 0.75278789
-0.56624317 0.27962565 0.75032675
-0.55369145 0.28030768 0.74793738
-0.54333282 0.27988008 0.74950182
-0.5347532 0.28018093 0.75049871
-0.52705592 0.28080326 0.75117427
-0.51114386 0.28166255 0.75187397
-0.50191104 0.28123376 0.75261629
-0.49539918 0.28312847 0.75291193
-0.48256704 0.28492907 0.75469172
-0.47808787 0.28544456 0.75599575
-1.118246 0.29261565 0.7528882
-1.1191485 0.29256603 0.75161511
-1.0639008 0.29589307 0.75832033
-1.0546267 0.2953932 0.75311428
-1.0460984 0.29379436 0.75015372
-1.0359242 0.2952708 0.74793756
-1.0242542 0.29471332 0.74694115
-1.0141327 0.29608583 0.7471503
-1.0041727 0.29618332 0.74938059
-0.99390829 0.29523933 0.75312966
-0.98629588 0.29354972 0.75878263
-0.98220587 0.29145369 0.76184732
-0.97420853 0.28732058 0.76747006
-0.97125661 0.28573966 0.76946729
-0.70900321 0.30896446 0.76957422
-0.5844906 0.28915876 0.74939233
-0.57760829 0.28668734 0.74802977
-0.56643486 0.28463885 0.74446338
-0.5570026 0.28421199 0.74404842
-0.54049534 0.28539476 0.74601507
-0.53362012 0.28633097 0.74532068
-0.5237298 0.28595045 0.74604547
-0.51411051 0.28566521 0.7471509
-0.50368929 0.28565472 0.74811381
-0.49383619 0.28808686 0.74822527
-0.48302329 0.28939846 0.75063121
-0.47292289 0.29107258 0.75226915
-0.46250227 0.29325405 0.75483215
-0.45504233 0.29566908 0.75579166
-0.4451375 0.29805773 0.75783187
-0.43711632 0.29963386 0.76025289
-0.4268122 0.30251458 0.76384574
-0.42085612 0.30356118 0.766536
-1.6771612 0.31720328 0.75510812
-1.6698427 0.31761497 0.75732136
-1.1147659 0.29864496 0.74904764
-1.1103474 0.29988241 0.75206012
-1.10352 0.30321708 0.75248557
-1.0943104 0.30565846 0.75276762
-1.0843372 0.30588779 0.75441986
-1.0756447 0.30540106 0.75441784
-1.0649769 0.30488333 0.75392228
-1.0542274 0.30399033 0.75131541
-1.0457737 0.30426434 0.74833816
-1.0364575 0.30392563 0.74645746
-1.0270152 0.30494455 0.74550134
-1.0135584 0.30506122 0.74617136
-1.0044262 0.30434301 0.74816239
-0.99450564 0.30360109 0.75173843
-0.98589653 0.30426896 0.75836813
-0.98195088 0.29905272 0.76447105
-0.86487389 0.30533779 0.75777501
-0.85636938 0.30695871 0.75800103
-0.84544456 0.30908698 0.75747031
-0.83526039 0.30809259 0.75873226
-0.73207098 0.31624424 0.76583862
-0.72241473 0.31516406 0.76557899
-0.7137962 0.31396371 0.7656948
-0.70530796 0.31429884 0.76456869
-0.69477612 0.31343552 0.76486754
-0.68372738 0.31416124 0.76411211
-0.67487925 0.31393811 0.76452881
-0.66589242 0.31355909 0.76399398
-0.65313947 0.31348342 0.76398033
-0.64451289 0.31367543 0.76319534
-0.63502318 0.31209069 0.7598483
-0.62387168 0.30835763 0.75495386
-0.61766601 0.30459166 0.75612062
-0.49041083 0.29327562 0.74390775
-0.48106733 0.29480582 0.74553508
-0.47258711 0.29615691 0.74771696
-0.46077967 0.29853833 0.75081694
-0.45310783 0.30150941 0.75131601
-0.44478008 0.30369404 0.75282645
-0.43652117 0.3049759 0.75611216
-0.42781389 0.30826184 0.75855392
-0.41900066 0.31030023 0.76213545
-0.41082594 0.31311399 0.7638855
-2.0359523 0.33410949 0.76892954
-1.7467694 0.31661379 0.75710547
-1.7348893 0.3168329 0.75427377
-1.7221282 0.31655878 0.75247419
-1.7122043 0.31536514 0.75496578
-1.7095722 0.31496 0.75591493
-1.6949496 0.31643233 0.75341886
-1.664046 0.31858161 0.75881094
-1.6577985 0.32108963 0.75666595
-1.3947716 0.32029119 0.76154053
-1.3848114 0.32115394 0.7602073
-1.3758913 0.32047743 0.76003706
-1.3548518 0.32026747 0.75793451
-1.34545 0.31996557 0.75720423
-1.3341452 0.31915578 0.75705361
-1.32442 0.31771219 0.75770175
-1.3150488 0.31749013 0.7569949
-1.305761 0.31836894 0.75554591
-1.2966374 0.31708762 0.75682962
-1.2882298 0.31693438 0.75844193
-1.1078397 0.30579042 0.74722719
-1.1016273 0.30805233 0.74894089
-1.0938278 0.30993134 0.7504065
-1.0850331 0.31080997 0.7505666
-1.0744905 0.31124455 0.750862
-1.0663034 0.3115797 0.75008291
-1.0563076 0.31107146 0.74890757
-1.0454745 0.3110849 0.74658561
-1.0361377 0.31139806 0.74477577
-1.0261142 0.31109294 0.7445997
-1.0150297 0.30993032 0.74508262
-1.0068448 0.31072083 0.74371225
-0.89393848 0.30812922 0.7529394
-0.88869458 0.30856493 0.75189364
-0.86341757 0.30944273 0.75399262
-0.85556525 0.31191051 0.75275409
-0.84496468 0.31411657 0.75240409
-0.83563006 0.31507546 0.75301802
-0.82893527 0.31327873 0.75321078
-0.73169822 0.32127878 0.76092935
-0.72446448 0.3216309 0.75958115
-0.71356851 0.32103375 0.75854611
-0.70449716 0.31980741 0.75933439
-0.69524187 0.31923753 0.75954252
-0.6856913 0.31950995 0.75899965
-0.67493922 0.31934908 0.75890183
-0.66354734 0.31949285 0.75822115
-0.65433055 0.31907919 0.75832194
-0.64399934 0.31723034 0.75901484
-0.63535976 0.3162533 0.75400215
-0.62259102 0.31093314 0.75125581
-0.61856574 0.30844024 0.75159317
-0.45113271 0.30668789 0.74782205
-0.44312683 0.30886868 0.75002766
-0.43369204 0.31254947 0.75192207
-0.42620495 0.31506291 0.75478387
-0.41647506 0.31741011 0.75752741
-0.40804371 0.3187595 0.76081234
-3.3850574 0.3279539 0.75757188
-3.3848684 0.32527056 0.75968874
-2.0515239 0.33975044 0.764579
-2.0437882 0.33748057 0.76715165
-2.0376139 0.33635265 0.767048
-1.6604083 0.32189843 0.7547977
-1.6513883 0.32226077 0.75849521
-1.6445622 0.32652 0.75498343
-1.6270962 0.33074656 0.75709879
-1.6151903 0.33197746 0.7584163
-1.6018518 0.33220592 0.76064068
-1.5988208 0.33002967 0.7634533
-1.5860993 0.33107242 0.76275301
-1.5760155 0.33282155 0.76041895
-1.5612363 0.33003145 0.76274413
-1.5397378 0.3308948 0.7605381
-1.5271457 0.33100858 0.75992566
-1.5162363 0.3297787 0.76058185
-1.5055355 0.32974759 0.76012868
-1.4943088 0.33022535 0.75899744
-1.4847842 0.32926503 0.75916773
-1.4727008 0.32925743 0.75818616
-1.468212 0.32717037 0.7599569
-1.4548098 0.32887417 0.75709498
-1.4447085 0.32767543 0.7574141
-1.4350971 0.32668656 0.75752634
-1.4258306 0.32718298 0.75638676
-1.4142221 0.32603607 0.75659651
-1.4045886 0.32690188 0.7552647
-1.3948811 0.32495731 0.75655168
-1.3846029 0.32558823 0.75527608
-1.3753757 0.32498494 0.75521153
-1.3653452 0.32411444 0.75491339
-1.3560286 0.32424667 0.75345546
-1.3325347 0.32172236 0.75427544
-1.3242037 0.32316241 0.75239289
-1.3147149 0.32203773 0.75232798
-1.3049852 0.32148767 0.75213754
-1.294277 0.32177103 0.75176156
-1.2883769 0.32218811 0.75170058
-1.0739492 0.31682101 0.74615353
-1.066313 0.3174713 0.74563563
-1.055979 0.31638208 0.74498647
-1.0474732 0.31688216 0.74376798
-1.0360035 0.3158012 0.74339581
-1.0294816 0.31398892 0.74439287
-1.0023 0.31532997 0.74163705
-0.76489645 0.32847342 0.75892723
-0.75505722 0.32826087 0.75789577
-0.74748385 0.32856131 0.75613123
-0.72942358 0.32668224 0.75497764
-0.7256431 0.32618928 0.7553786
-0.71394175 0.32531488 0.75529027
-0.70194292 0.32567054 0.75408745
-0.69645196 0.32455832 0.75508672
-0.68556768 0.32478669 0.75524586
-0.64973789 0.3235552 0.75398296
-0.64018089 0.32256663 0.75336313
-0.4302434 0.31854129 0.74961811
-0.42401659 0.31893671 0.7527582
-0.40439135 0.32630798 0.75672776
-0.39955726 0.32726619 0.75850844
-3.3843181 0.33299628 0.75607282
-3.3849146 0.33602774 0.75841421
-2.068996 0.34552872 0.76062441
-2.0633423 0.34332615 0.76298958
-2.0558743 0.34285679 0.76160121
-2.0441623 0.34074193 0.76432967
-2.027395 0.34306484 0.76155019
-2.0118291 0.34273475 0.76240724
-1.995324 0.34351748 0.76235324
-1.9611086 0.34293345 0.76322037
-1.9500264 0.34518737 0.76098901
-1.9477755 0.34315494 0.76281971
-1.9375614 0.34619397 0.75946569
-1.8901103 0.34154585 0.7578755
-1.8880805 0.34199342 0.75740224
-1.6574486 0.32493806 0.75079882
-1.6491808 0.32873854 0.74907088
-1.6394578 0.32935977 0.75378948
-1.6342748 0.33064175 0.75431991
-1.624153 0.33467185 0.75243229
-1.6140184 0.33519039 0.75462222
-1.6053885 0.33567756 0.75597405
-1.5938091 0.33672071 0.7563473
-1.5845453 0.33725387 0.75588048
-1.5732867 0.33724537 0.75550747
-1.5647134 0.33541015 0.75703239
-1.5541508 0.3360796 0.75595194
-1.5454162 0.33507299 0.75651485
-1.5347695 0.3354913 0.75557715
-1.5253524 0.33439586 0.75639725
-1.5127589 0.33604386 0.75416714
-1.5059248 0.33524311 0.75459218
-1.496226 0.33473924 0.7546193
-1.4850935 0.33432347 0.7541576
-1.474538 0.33386046 0.75379854
-1.4654942 0.33364815 0.7532571
-1.4552772 0.33254349 0.75357366
-1.4456414 0.33187261 0.75338787
-1.4336929 0.33216727 0.75213689
-1.414023 0.33144248 0.75150985
-1.3955077 0.3306427 0.75089991
-1.3854069 0.33045393 0.75032902
-1.3756202 0.33007661 0.74965012
-1.364787 0.32909364 0.74936634
-0.76078904 0.33308628 0.75348794
-0.75457889 0.33263451 0.75290161
-0.74510533 0.3314167 0.75275916
-0.73498291 0.33104846 0.75118631
-0.72582996 0.33061275 0.7505551
-0.71550226 0.33033341 0.74993455
-0.70517051 0.32971713 0.75027305
-0.69515574 0.32946491 0.75030643
-0.68489659 0.32971278 0.75017488
-0.67484736 0.33003166 0.74956894
-0.66565162 0.32940888 0.74994719
-0.65579426 0.32910052 0.74905616
-0.64579546 0.32776746 0.7489168
-0.64104629 0.32464597 0.75134629
-0.40082222 0.33370349 0.7526294
-0.39541978 0.33358935 0.75546831
-0.38465598 0.33758944 0.75753659
-3.383703 0.34416133 0.75628519
-3.3842235 0.34591562 0.75895762
-2.0991623 0.35308367 0.76021928
-2.0960786 0.35270521 0.76015896
-2.08338 0.35153893 0.75754505
-2.0698202 0.35023177 0.7560187
-2.0649307 0.34794953 0.75807935
-2.0513542 0.34986252 0.7548098
-2.0460577 0.34626028 0.75874329
-2.0314615 0.34824663 0.75629294
-2.0296903 0.34492806 0.75951707
-2.0160565 0.34733966 0.75760043
-2.0027616 0.34867302 0.75676554
-1.9966395 0.3459405 0.75998467
-1.9839896 0.34914368 0.75686622
-1.9746219 0.34799498 0.7583732
-1.9667618 0.34777081 0.75839627
-1.9525499 0.34860227 0.75772458
-1.9443744 0.34875935 0.75764751
-1.9350407 0.34780478 0.75808489
-1.9259888 0.34990457 0.75503433
-1.9142463 0.34644261 0.75782162
-1.9067737 0.3489731 0.75391263
-1.6451801 0.33082315 0.74856949
-1.6399552 0.3324658 0.74962276
-1.629953 0.33592859 0.74988997
-1.6239511 0.33728462 0.75060201
-1.6135752 0.33909568 0.75125903
-1.6059312 0.33962616 0.75240207
-1.5936098 0.34087893 0.75218999
-1.5855782 0.34151384 0.75162566
-1.5745965 0.33943477 0.75326276
-1.565532 0.34079078 0.75132275
-1.5533559 0.34023115 0.75164473
-1.5447339 0.34216207 0.74925733
-1.5339457 0.33982456 0.75100911
-1.5256432 0.3404313 0.75000596
-1.5153391 0.33885184 0.75118667
-1.5038526 0.33883861 0.75094241
-1.4919636 0.34026036 0.74871266
-1.4843107 0.33777973 0.75064248
-1.4659241 0.33772534 0.74928463
-1.4562377 0.33782899 0.74847525
-0.73209691 0.33553508 0.74622345
-0.72788292 0.3355886 0.74570578
-0.71339214 0.33482125 0.74526912
-0.7047199 0.33510774 0.74477673
-0.69263977 0.33507735 0.74476385
-0.68517554 0.33487365 0.74493605
-0.67580432 0.33502674 0.74465692
-0.66636866 0.33391944 0.7454474
-0.65834558 0.33394283 0.74446344
-0.64885944 0.33290234 0.7440086
-0.39933014 0.33944127 0.74857134
-0.39236301 0.34115377 0.75075972
-0.38423356 0.34263796 0.75345093
-0.37480807 0.34590903 0.75491846
-0.36534542 0.34674025 0.75736594
-0.35759112 0.34746876 0.75822496
-3.383975 0.35416016 0.75606084
-3.3840647 0.35606703 0.75791013
-2.1324415 0.36309069 0.76103133
-2.1035857 0.35742742 0.75730407
-2.0814142 0.35520324 0.75439405
-2.0787203 0.35325447 0.75564128
-2.0651376 0.35278013 0.75264502
-2.0543723 0.3522329 0.75298369
-2.0489469 0.350981 0.75416321
-2.0344098 0.35234919 0.7527321
-2.0247245 0.35342467 0.75169182
-2.014071 0.35205567 0.75333679
-2.0046611 0.35274684 0.75323498
-1.9940468 0.35414088 0.75235009
-1.9855057 0.351154 0.7552585
-1.9756205 0.35494956 0.7515285
-1.9647489 0.35264915 0.753829
-1.9576789 0.35164699 0.75498843
-1.9472015 0.35507283 0.75160897
-1.934324 0.3517324 0.75403684
-1.9216889 0.35299364 0.75186616
-1.916867 0.3526594 0.75182533
-1.907522 0.35221836 0.75089329
-1.6241593 0.34148043 0.74463004
-0.37172282 0.3510353 0.75190628
-0.36415789 0.35310405 0.75211573
-0.35474044 0.35253379 0.7542392
-0.34546366 0.35423771 0.75372469
-0.33912817 0.35268533 0.75531101
-3.3854005 0.36954355 0.75446755
-3.3849318 0.36608809 0.75656855
-2.1321387 0.36646035 0.75815272
-2.1274135 0.36447254 0.75777757
-2.1146595 0.363213 0.75405854
-2.1047912 0.36165288 0.7527383
-2.0953624 0.36202201 0.74939471
-2.0865374 0.35833576 0.75214857
-2.0772967 0.35904971 0.74966687
-2.0660439 0.35727158 0.74863714
-2.0539284 0.35693306 0.74819338
-2.0451782 0.357521 0.74766117
-2.0292578 0.35859874 0.74622524
-2.0031588 0.35906836 0.74704862
-1.9956461 0.35743695 0.74894577
-1.9820677 0.35991898 0.7462042
-1.9753664 0.3590987 0.74694777
-1.969332 0.35684443 0.74961358
-1.9536095 0.35855612 0.74799138
-1.9479053 0.35681063 0.74965984
-1.9317402 0.35790926 0.74765635
-1.9262408 0.35610214 0.74900031
-1.9125496 0.35877615 0.74540991
-1.9099195 0.35763705 0.74582016
-0.34592724 0.35948622 0.75006747
-3.3860719 0.37331671 0.75428349
-3.3866987 0.37398857 0.75596726
-2.1361284 0.37311879 0.7521826
-2.1247911 0.37019011 0.7493251
-2.1199043 0.36758429 0.75101572
-2.0729818 0.36396611 0.74320072
-1.9826221 0.36299086 0.74300653
-3.3887191 0.38385671 0.75401318
-3.3878345 0.37938175 0.75644016
-3.3908637 0.39301741 0.75070393
-3.4068358 0.4146035 0.75921255
-3.3924844 0.3978776 0.74956602
-3.406004 0.41686821 0.76013887
-3.4057066 0.41639 0.76077205
-3.4075372 0.42671579 0.758627
-3.4049804 0.43189445 0.7619369
-1.5063651 1.0865471 0.75086331
-1.5077711 1.0958061 0.75537729
-1.5070437 1.0966687 0.75663382
-1.5110816 1.1049894 0.75512588
-1.5089077 1.1017385 0.75662452
-1.518647 1.1155488 0.75124079
-1.5163406 1.115232 0.75516433
-1.5219575 1.1240747 0.75393146
-1.5243434 1.1301754 0.75714445
-1.9064161 1.375831 0.759471
-1.9006861 1.3771976 0.75845098
-1.8970524 1.3787578 0.75702578
-1.8916423 1.3793273 0.75267684
-1.8841705 1.3819028 0.75526047
-1.8789639 1.3831098 0.75823593
-1.0416291 -0.28446066 0.76362282
-1.0386224 -0.28376985 0.76665848
-1.0423702 -0.27499893 0.76392198
-1.0392696 -0.27565378 0.76755911
-1.042861 -0.2639519 0.76581842
-1.0413471 -0.26440713 0.76765221
-1.0492816 -0.25357038 0.75965846
-1.0446708 -0.25500098 0.76564693
-1.0406692 -0.25338557 0.77152181
-1.0507821 -0.24599282 0.75903368
-1.0462021 -0.24510178 0.76591367
-1.0420178 -0.24625413 0.77173978
-1.0379231 -0.25097525 0.77601689
-1.0509795 -0.23862495 0.76022542
-1.046993 -0.23608208 0.76673579
-1.0447654 -0.23631993 0.76991254
-1.0488853 -0.22597986 0.76656491
-1.0526059 -0.21447593 0.76437092
-1.0498559 -0.21497813 0.76846802
-1.0586596 -0.20500949 0.75929582
-1.0550988 -0.2044802 0.76449901
-1.0583819 -0.19352612 0.76314026
-1.0560707 -0.1951582 0.76576221
-1.0608808 -0.18440971 0.76292169
-1.0575454 -0.18619312 0.76678866
-1.0675446 -0.17294216 0.75800216
-1.0631547 -0.17492165 0.76369995
-1.0590415 -0.17608917 0.76868862
-1.0677965 -0.16482745 0.76062775
-1.0649879 -0.16517924 0.76449621
-1.0600209 -0.16268368 0.7718758
-1.0700285 -0.15119854 0.76211798
-1.0662134 -0.15540563 0.76581663
-1.0721706 -0.14571683 0.76113212
-1.0686641 -0.1491411 0.76458323
-1.1194805 -0.074822292 0.76700747
-1.1166626 -0.078479029 0.76942688
-1.1308129 -0.061152004 0.76190895
-1.1269372 -0.064358167 0.76533002
-1.138038 -0.049126942 0.7636835
-1.1344619 -0.055378802 0.76260102
-1.1439879 -0.044465564 0.75812918
-1.1417743 -0.044089299 0.76305544
-1.1491417 -0.03128029 0.7636919
-1.1457665 -0.0373041 0.76323712
-1.1571289 -0.019914493 0.76038432
-1.1531372 -0.022610633 0.76543808
-1.1645989 -0.0080328574 0.7595374
-1.1605324 -0.012411273 0.76203632
-1.1558355 -0.01609651 0.76659775
-1.1528451 -0.018439738 0.76951826
-1.1702383 0.004721907 0.76263732
-1.1682465 -0.0017242023 0.75939065
-1.1626035 -0.0045407359 0.76602775
-1.1596937 -0.0069542392 0.76812482
-1.1552445 -0.01247034 0.77067202
-1.1708174 0.0088354349 0.76484215
-1.1664939 0.0039117266 0.76632088
-1.1637616 0.0014465774 0.76848364
-1.1793104 0.019286104 0.76149052
-1.1752309 0.01603589 0.76451051
-1.1702236 0.011567313 0.76801729
-1.165882 0.0090440148 0.77334201
-1.1870873 0.030100323 0.76113832
-1.1825322 0.024932332 0.76236767
-1.1777231 0.023560714 0.76735801
-1.1740823 0.018427184 0.76835918
-1.1897146 0.036625285 0.76354772
-1.1887087 0.03537292 0.76287872
-1.1820992 0.030796174 0.76814896
-1.2004795 0.051554412 0.76279104
-1.1957227 0.045127165 0.7627148
-1.189093 0.041869849 0.76855755
-1.1865348 0.038580626 0.76829231
-1.2083567 0.059201833 0.76038367
-1.2029206 0.056671616 0.76487368
-1.1994594 0.053196602 0.76561022
-1.1931294 0.048981227 0.77006102
-1.2321744 0.075523071 0.75768673
-1.2207966 0.070372656 0.75919008
-1.2135594 0.066941425 0.76297462
-1.2071482 0.062228329 0.76539737
-1.2017033 0.05930819 0.76964813
-1.1961403 0.055288903 0.77346325
-1.2322472 0.078798547 0.76223814
-1.2244543 0.075253725 0.76356989
-1.2173502 0.073622599 0.76700985
-1.2108431 0.069109723 0.76918364
-1.2066196 0.068201765 0.7734319
-1.2323169 0.082892917 0.76740617
-1.2237341 0.079000384 0.76773101
-1.2188157 0.077599593 0.77098483
-1.2129717 0.076398507 0.77532423
-1.206597 0.07126765 0.77693993
-1.224058 0.084280603 0.77421468
-0.67792434 0.098589718 0.76136005
-0.67502344 0.096783146 0.76644778
-0.67333508 0.097537667 0.76981938
-0.67933679 0.10546441 0.76093894
-0.67693782 0.10411141 0.76513529
-0.67514753 0.10348543 0.76909739
-0.68060523 0.11463532 0.76134831
-0.67775398 0.11291341 0.76686043
-0.67652702 0.11026638 0.76868838
-0.56373721 0.25092426 0.77839506
-0.56337351 0.24765353 0.77841765
-0.55393887 0.24690901 0.77735472
-0.5441739 0.24791433 0.77554458
-0.53439522 0.24588831 0.7780906
-0.52370113 0.24644171 0.77783835
-0.51506525 0.24743405 0.77642566
-0.508883 0.24585454 0.77843559
-0.49654379 0.247721 0.77879184
-0.48958752 0.2477572 0.78034496
-0.48455966 0.24582849 0.78008813
