# .PCD v0.7 - Point Cloud Data file format
VERSION 0.7
FIELDS x y z rgb
SIZE 4 4 4 4
TYPE F F F U
COUNT 1 1 1 1
WIDTH 1170
HEIGHT 1
VIEWPOINT 0 0 0 1 0 0 0
POINTS 1170
DATA ascii
-0.92859232 0.29299128 0.67445576 1709648
-0.93716919 0.29973203 0.67118692 2041177
-0.93164396 0.29766032 0.67313117 1581148
-0.9291411 0.29549587 0.67409903 1580632
-1.8209629 0.38704649 0.67203975 15921642
-1.817008 0.38613087 0.67339098 15852267
-2.1521103 0.40453807 0.67124397 12231564
-2.1135731 0.40450138 0.6747129 15195367
-2.1667387 0.40953466 0.67233825 11900815
-2.0989363 0.40752888 0.6740579 15263718
-1.8353301 0.41870356 0.67164946 13746634
-1.8326825 0.41809058 0.67255408 14799586
-1.8366898 0.42490965 0.6707657 14404034
-0.9354043 0.29166353 0.67655087 2828373
-0.93218815 0.29091895 0.67764974 2894161
-0.92667347 0.29361802 0.67925102 2169170
-0.9343614 0.29619303 0.67656767 1449562
-1.8212323 0.38303751 0.67877197 15985644
-2.1411495 0.39952743 0.67993319 15784380
-2.1112974 0.40252328 0.67661279 15260903
-1.8415772 0.41605863 0.67718375 13546946
-1.8389171 0.41544276 0.67809266 14601436
-0.87334871 0.28282446 0.6838432 5068640
-0.92354286 0.29104322 0.68256021 2429774
-1.8280598 0.3774142 0.68432945 15985392
-1.8274128 0.38022402 0.68433994 16116206
-0.79299188 0.38752398 0.68253601 15131844
-2.1382415 0.40151605 0.68189979 15458798
-2.102668 0.4084245 0.68244863 15261671
-1.8450084 0.40992802 0.68282801 14270672
-1.8470296 0.41336748 0.68192595 13417154
-1.8443588 0.41274917 0.6828385 14402518
-1.5093801 1.020668 0.68380237 196866
-2.2003858 -0.063525893 0.68674111 8611414
-0.87095046 0.28340876 0.68557286 6183804
-0.92674047 0.28847128 0.68908101 2228543
-0.92458028 0.28797114 0.6898191 1969480
-1.833385 0.36266434 0.68997103 15657198
-0.85336167 0.37620491 0.689224 8878978
-1.8341798 0.38364896 0.68821937 15853811
-0.79233438 0.38767466 0.68701696 14801855
-0.78987849 0.38915011 0.68869859 15065028
-0.80031908 0.39411378 0.68791336 16049818
-0.79683059 0.39245439 0.68818182 16579772
-0.79216057 0.39290535 0.68849039 16513959
-0.78852838 0.39313376 0.68929929 16316590
-2.1446991 0.3994596 0.68980992 15528175
-0.79131091 0.39684147 0.68684483 16711319
-0.78796214 0.39670399 0.68835592 16580245
-2.0978475 0.40200114 0.6867007 15261675
-2.0992541 0.40545735 0.68529844 15326955
-2.0425758 0.43194723 0.68804896 13416893
-1.5208142 1.0672771 0.68962568 656390
-1.5201861 1.0700053 0.68963581 721926
-0.73168182 0.14589627 0.69135147 2302752
-3.3370409 0.35826248 0.69422221 8747651
-2.1238294 0.39350572 0.69347006 15261421
-0.79028511 0.39133045 0.69192815 15855037
-0.78686804 0.39426917 0.69042218 16121517
-2.142386 0.39744905 0.69174099 15459056
-2.1383059 0.3984431 0.69468361 15130092
-2.1232224 0.39749417 0.6935159 15195370
-0.80071211 0.397338 0.69229841 16514709
-0.79761428 0.39661178 0.69134551 16580266
-0.78586459 0.39597553 0.69099665 16252580
-2.1249161 0.40348238 0.69164097 15261416
-2.0512414 0.42804512 0.69288611 13416374
-2.0484376 0.42739597 0.69384408 13416885
-1.5067679 1.0228519 0.69082022 131331
-1.5046364 1.024266 0.69141275 131587
-1.5040109 1.0269824 0.69142288 197123
-1.5305617 1.0672073 0.69278455 656132
-1.5276527 1.0679766 0.69367576 656391
-1.5179172 1.0680432 0.69051325 459528
-1.5267065 1.0720859 0.69369102 852996
-3.3306587 0.35271525 0.69955021 8420231
-3.3326309 0.35756132 0.69758403 8616581
-2.1186843 0.38451779 0.69822603 15525360
-2.1180773 0.38850623 0.69827187 15195885
-2.1215286 0.39150593 0.69539076 15261421
-2.1186206 0.39349455 0.69735742 15260906
-2.1359928 0.39643258 0.69661468 15196141
-2.1157126 0.3954832 0.69932395 15457770
-2.102818 0.39651543 0.69607055 15326954
-1.8623158 0.40455973 0.69866067 13941182
-1.8596091 0.40393311 0.69958544 14207442
-2.0577974 0.42047933 0.69867009 13482425
-1.5044782 1.0318849 0.69745654 262402
-0.80181843 0.31462595 0.70149559 11646150
-1.8374515 0.33406234 0.70438528 14733255
-1.8367963 0.33690804 0.70439589 15655640
-1.834794 0.33944184 0.70486671 15591146
-1.839527 0.34353498 0.70303625 15919081
-3.3274674 0.34994167 0.70221412 8551305
-1.8388718 0.34638065 0.70304686 15786987
-3.3250299 0.35408664 0.7036097 8682384
-3.3282211 0.35686022 0.70094579 8551306
-3.3570013 0.36343402 0.70258695 8747905
-3.3257835 0.36100519 0.70234138 8747909
-3.3545458 0.36760938 0.70399278 8813437
-3.3233459 0.36515006 0.7037369 8747904
-2.1117818 0.3785184 0.70398831 15525619
-2.1163836 0.38251799 0.70014679 15590899
-2.1140826 0.3805182 0.70206755 15525366
-2.1137471 0.3870008 0.7016561 15130348
-2.1151693 0.39049485 0.70023853 15195882
-2.1134119 0.3934834 0.70124471 15261418
-2.0661533 0.41798162 0.70350832 13875897
-2.0633245 0.41732672 0.70447487 13677240
-0.67413801 -0.050064061 0.70771778 1315090
-0.80897099 0.31676215 0.7074492 6907259
-1.7338319 0.32410276 0.70585942 16645883
-1.720027 0.32183886 0.70612508 16711422
-1.8457083 0.34048891 0.70862049 15658984
-3.3225923 0.3582316 0.70500529 8813705
-3.3513312 0.36481541 0.7066763 8748417
-3.3488758 0.36899087 0.70808214 8748414
-3.3520904 0.37178484 0.70539862 8748408
-3.3464203 0.37316626 0.70948797 8748671
-3.3496349 0.3759602 0.70680445 8748155
-2.1077235 0.37950715 0.70691526 15195630
-3.3471792 0.38013569 0.70821029 8682110
-3.3447237 0.38431105 0.70961612 8682111
-1.3584809 0.40397862 0.70960975 13158874
-2.0702655 0.41447362 0.70979834 13547450
-2.0731068 0.41513145 0.7088275 13679800
-2.0604956 0.41667178 0.70544142 13482425
-1.5122396 1.0403206 0.70697969 262402
-0.71150488 0.13839446 0.71342999 1775907
-3.317894 0.34162086 0.71020603 8944257
-3.3154564 0.34576583 0.71160161 9075326
-3.3419778 0.37245995 0.71287447 8748160
-2.1146276 0.3733227 0.71491361 15656946
-3.3439646 0.37734172 0.71089381 8748160
-2.1180975 0.37633848 0.712017 15591153
-3.3415091 0.38151708 0.71229964 8748161
-1.3560565 0.40359312 0.71145797 13879764
-1.3571409 0.40625739 0.71037698 14666200
-1.3540463 0.4070113 0.71260881 16444358
-2.0674241 0.4138158 0.71076912 13416892
-1.5112301 1.0448788 0.71330738 262402
-0.71119618 0.13432179 0.71783149 1711655
-0.70945656 0.13404521 0.7191577 1776162
-1.80181 0.3348029 0.71592313 14667232
-1.8609253 0.34425902 0.71731579 14930903
-1.8581952 0.34362695 0.71824861 15395563
-1.8679415 0.37817132 0.71894479 15458790
-1.867275 0.38106647 0.71895552 15786730
-3.3659666 0.38977233 0.71849662 8682113
-1.8700532 0.38780865 0.71757233 14933475
-3.363492 0.39398015 0.71991336 8682114
-1.3363358 0.39465091 0.71906608 12892052
-1.3409376 0.39707911 0.71739686 15198684
-1.3375717 0.39675415 0.71851444 14933179
-1.3332902 0.39667141 0.71991277 12625052
-1.3581294 0.40396971 0.7173838 14534857
-1.3567836 0.40625811 0.71815431 16511421
-2.081141 0.41227621 0.71506029 13547704
-2.0768571 0.41128439 0.716524 13416122
-2.0725729 0.41029254 0.71798784 13285564
-0.70771688 0.13376862 0.72048384 1971998
-3.3352582 0.35084543 0.72009403 9271679
-3.3661461 0.36449406 0.7209428 8813442
-3.3636715 0.36870188 0.72235954 8748161
-1.8727928 0.3749184 0.72497624 15393775
-3.3619618 0.37993321 0.7224887 8813184
-1.8765881 0.37732881 0.72357047 14601425
-3.3594873 0.38414094 0.72390538 8878464
-1.8735373 0.38428101 0.72406793 15790568
-3.3627269 0.38695666 0.721201 8747650
-3.3602524 0.39116451 0.72261775 8813187
-1.3364127 0.39960009 0.72395873 13548995
-1.3308403 0.39610425 0.7207498 10914694
-1.3283905 0.39553708 0.72158688 9210259
-2.0880685 0.40297884 0.72084689 13481910
-1.3401008 0.40045395 0.72269857 15065825
-2.0876162 0.40712953 0.72069854 13547448
-2.0830679 0.40501264 0.72232831 13547705
-1.2459321 0.013080006 0.72565949 2431512
-1.2441422 0.010034263 0.72645831 2365973
-1.2453569 0.015578192 0.72566879 2367002
-1.2480481 0.023458365 0.72971338 2825502
-1.2419057 0.030567307 0.72572452 2694698
-1.7855052 0.32956219 0.72897601 14011869
-1.7827986 0.32893559 0.72990078 14073307
-1.7909184 0.33081543 0.72712648 14537186
-1.2674437 0.33735546 0.72847265 6316905
-1.8718987 0.34101382 0.72767961 14403541
-1.8691452 0.34037635 0.72862035 14998245
-0.8329038 0.34282327 0.72858727 10521477
-3.3905628 0.3471804 0.7295295 8812923
-0.83346415 0.34538066 0.72822303 10915713
-3.3925803 0.35213751 0.72751826 8747906
-2.0978892 0.35423389 0.72935039 16051141
-3.3888402 0.35849735 0.72965962 8944513
-0.91006398 0.36165872 0.72534162 4472653
-0.9078427 0.36114445 0.72610056 3816015
-1.8827958 0.36821425 0.72957808 13617357
-3.3587224 0.37711754 0.72519302 8812672
-3.3844433 0.39952537 0.72875237 8681603
-2.0971818 0.39730942 0.72566426 13352123
-2.0931065 0.39743447 0.72698051 13351867
-1.331495 0.39846158 0.72563893 11046297
-2.0964811 0.40035266 0.72567558 13482681
-1.3321265 0.40134335 0.72522855 12556450
-1.3296677 0.40077412 0.72606862 11703199
-1.7573212 0.31850824 0.73155034 15721181
-1.7753371 0.32419682 0.73266447 15066342
-1.7729596 0.32214075 0.73358393 15459040
-1.7880964 0.32584015 0.73493266 14869225
-1.780092 0.32830894 0.73082554 14143454
-3.3840342 0.34150606 0.73497951 8878727
-0.82736623 0.34267235 0.73171622 10325382
-0.83148938 0.34703013 0.73401761 10325114
-0.82784295 0.34634644 0.73261726 9865599
-3.3880694 0.35142028 0.73095703 8943988
-2.0955758 0.3522234 0.73128146 16181702
-3.385576 0.3556602 0.73238462 9075065
-2.096122 0.35723847 0.730362 15721457
-1.8768524 0.3560676 0.7323752 15130341
-1.8740864 0.35542724 0.7333203 16049127
-3.3863468 0.36273727 0.73108715 8878976
-3.3838532 0.36697719 0.73251468 8813184
-1.8803662 0.3661131 0.73051775 14667731
-1.8780738 0.36763391 0.73115498 15458530
-3.382992 0.37263566 0.73257971 8747393
-1.8790208 0.37195632 0.73053944 15064557
-3.3796372 0.38253406 0.73407233 8878207
-3.380408 0.38961112 0.73277485 9009538
-2.1050675 0.39431804 0.73174435 13286075
-2.1021721 0.39364773 0.73273361 13350588
-3.3811789 0.39668819 0.73147738 8812933
-1.502226 1.0721061 0.7334801 262402
-0.69220793 0.14114946 0.73906291 1051407
-1.7826611 0.3245818 0.73678976 15000294
-1.261184 0.32980061 0.73631561 10333311
-1.2583382 0.32733953 0.73741621 10127209
-1.2618079 0.33264843 0.73591006 10853252
-3.38077 0.33866897 0.73770446 8813186
-3.3782766 0.34290886 0.73913199 8682117
-3.3815408 0.34574595 0.73640704 8878729
-1.8809738 0.3494291 0.73888499 15917023
-1.8837522 0.35007235 0.73793566 14864593
-3.3756022 0.37261981 0.73809481 8681859
-3.3776197 0.37757695 0.73608357 8812417
-3.3731086 0.37685972 0.73952234 8747396
-3.3771439 0.38677397 0.73549986 8944000
-2.1131225 0.38668454 0.73704576 13286330
-2.1098609 0.38754708 0.73804498 13351868
-2.1120615 0.39129189 0.73706287 13286075
-2.1091535 0.39061865 0.73805642 13351100
-3.4055908 0.40514833 0.73768741 8747139
-3.4030783 0.40942061 0.73912585 9009540
-1.5265582 1.1087947 0.73665804 328198
-0.6518333 -0.056747809 0.74281716 1315091
-0.64939213 -0.058869563 0.74485505 1446164
-0.68665808 0.13756876 0.74356902 1182224
-0.6904577 0.14087118 0.7403971 1117202
-0.68949026 0.14251626 0.740951 1838100
-0.88729697 0.31481823 0.74302715 1576480
-1.7394931 0.31890967 0.74469703 15721707
-0.88620347 0.31667766 0.74365324 1778212
-0.88356686 0.31828928 0.74170035 4799272
-1.7906045 0.32494104 0.74155867 15000551
-1.2617028 0.32226986 0.74300659 6840132
-0.88193083 0.32107118 0.74263704 8677246
-0.87910318 0.32213044 0.74213493 12637383
-2.0486307 0.3269614 0.7435981 16050892
-3.3742416 0.33299464 0.74315447 8879231
-2.0652218 0.33353421 0.74331766 16051406
-3.3775058 0.33583179 0.74042946 8813950
-3.371748 0.33723453 0.74458206 9075585
-3.3750124 0.34007171 0.74185705 8878722
-3.3725188 0.34431159 0.74328458 8944257
-3.3700254 0.34855151 0.74471211 8878465
-1.8915401 0.34729064 0.74318945 14206403
-3.3683028 0.3598685 0.74484223 9141120
-1.8905597 0.35793322 0.742751 14602196
-1.8874289 0.35876122 0.74371016 15393003
-3.371567 0.36270559 0.74211729 8878721
-3.3673511 0.37826246 0.74367487 8878724
-2.1193502 0.37830475 0.74425918 13351095
-3.3706152 0.38109964 0.74094987 8878979
-2.121562 0.3820684 0.74327207 13417144
-3.3681219 0.38533953 0.74237746 8944259
-3.3982358 0.3922995 0.74448639 8878722
-3.401525 0.39515829 0.74174058 8944259
-3.3990123 0.39943066 0.74317908 8878721
-3.4023015 0.40228954 0.74043322 8812675
-3.3964999 0.40370294 0.74461752 8813183
-3.3997891 0.40656179 0.74187165 8944001
-3.4005659 0.41369298 0.74056435 9337472
-3.3972766 0.41083416 0.74331015 9075071
-3.3980534 0.41796526 0.74200279 9076093
-3.3947642 0.41510645 0.74474859 8943741
-3.395541 0.42223752 0.74344122 8812158
-1.5077171 1.0806606 0.74478704 262402
-1.5280833 1.1142286 0.74209899 328195
-1.5267669 1.1179018 0.7422657 328451
-1.5281198 1.120204 0.74166197 525059
-1.5217786 1.123211 0.74351013 328455
-1.9020908 1.3620129 0.74491352 5452563
-0.65211892 -0.05710201 0.74889934 1381394
-0.64845979 -0.057284173 0.74538881 1381648
-1.0513179 0.25386882 0.74546498 7609657
-1.0492797 0.25210613 0.74625325 7082527
-1.7473313 0.31640238 0.74886101 15787244
-1.7446136 0.31577322 0.74978954 15721708
-1.7367866 0.31828305 0.7456218 15721707
-1.73408 0.31765643 0.74654663 15787244
-0.88682824 0.31575307 0.74828869 2701375
-0.88313168 0.31822252 0.74578738 8946309
-2.0463426 0.32497257 0.74550837 15985614
-2.0429101 0.3219893 0.74837369 15920081
-2.0606201 0.32953465 0.74715912 16051915
-2.0629208 0.33153445 0.74523836 16051148
-1.8974829 0.3518939 0.74830693 13944525
-1.8943381 0.35272557 0.74927044 14997216
-1.8989229 0.35846633 0.74737096 14006720
-1.8964982 0.36258417 0.74786651 15059411
-3.3959055 0.37090603 0.7484085 8550788
-3.393393 0.3751784 0.74984699 8681863
-3.3648577 0.38250238 0.74510247 9010050
-3.397459 0.38516834 0.74579376 8878466
-3.3949466 0.38944063 0.74723226 8878722
-3.3957231 0.39657187 0.74592483 8878720
-3.3906982 0.4051165 0.74880177 8616828
-1.5050462 1.0800422 0.74569958 196866
-1.5285385 1.1272857 0.74839967 328453
-1.8984574 1.3644233 0.74592358 5453334
-0.64887321 -0.056311257 0.75124019 1577742
-0.65101141 -0.052618101 0.75302345 1708559
-0.64893025 -0.053536583 0.75279212 1774097
-0.69083863 0.13951011 0.75277001 1772820
-0.69114065 0.14228277 0.7522617 2365205
-0.68937337 0.14200178 0.75360894 2628629
-1.7378194 0.31420022 0.75211096 15787501
-1.7323841 0.31294188 0.753968 15656429
-1.7225586 0.31197777 0.75069737 15656171
-1.7124273 0.3126435 0.75394475 13940698
-1.7097207 0.31201687 0.75486952 14142422
-1.697433 0.31363529 0.75137258 14208206
-1.692045 0.31238788 0.75321364 14538697
-0.88998562 0.31420049 0.75109887 1904144
-2.0354416 0.31998935 0.75414997 15853554
-2.0400181 0.32396704 0.75032949 15788273
-2.03773 0.32197818 0.75223976 15788529
-3.3945343 0.33097792 0.75350696 8879232
-1.8914199 0.3333329 0.75159937 14469317
-3.3920219 0.3352502 0.7549454 8944512
-1.89214 0.33661911 0.75113136 14666196
-1.8893361 0.33596998 0.75208938 15456471
-3.3927987 0.34238145 0.75363803 9271936
-2.1020107 0.34242937 0.75251663 16116935
-1.9068923 0.3479411 0.75290596 13877189
-3.391063 0.35378495 0.7537691 8878464
-3.3926163 0.36804718 0.75115436 8944262
-2.1361361 0.37737924 0.75467563 13351350
-2.1272526 0.37517557 0.75034362 13351093
-3.3841197 0.39939877 0.7542935 8617093
-3.387409 0.40225765 0.75154763 8485760
-3.4173071 0.40936595 0.7535519 8812925
-3.4155583 0.42085505 0.75368398 8812669
-3.4163411 0.4280397 0.75236678 8746111
-3.4138095 0.43234414 0.75381607 8681085
-0.67454368 0.058995254 0.75662142 2037287
-0.67421055 0.061183881 0.75664651 1971750
-1.1300777 0.26075897 0.7564612 12956349
-1.1281024 0.2620694 0.7570104 13093329
-1.119675 0.262328 0.75973254 10590105
-1.7469214 0.31482771 0.75648397 15722476
-0.88949454 0.31513527 0.7563771 7098459
-3.3912451 0.32811913 0.75625277 8879233
-3.3879559 0.32526025 0.75899863 8486275
-3.3887327 0.33239138 0.7576912 8879233
-2.1341825 0.35887909 0.75662738 13286330
-2.1342626 0.37202334 0.75566596 13285556
-3.3813102 0.3872726 0.75762743 8878724
-3.3833432 0.39226761 0.75560081 9010311
-3.3816073 0.40367106 0.75573194 8812675
-3.4131188 0.41223013 0.75638437 8747130
-3.4122446 0.41797474 0.75645041 8812668
-3.4089305 0.41509438 0.7592169 8943996
-3.413027 0.42515939 0.75513321 8747134
-1.7059053 0.30983523 0.76279998 12822997
-1.7031876 0.30920607 0.76372856 13085139
-1.6826549 0.3057507 0.76411718 15328229
-0.90633583 0.30943826 0.76467299 1775648
-1.7113407 0.3110936 0.76094288 13348307
-1.7086229 0.31046441 0.7618714 12565460
-3.3813775 0.31954259 0.76449025 8747140
-3.3846669 0.32240146 0.76174438 8092291
-3.3854434 0.32953253 0.76043707 8682626
-3.3821542 0.32667372 0.76318282 8486018
-3.3779061 0.34234956 0.76475245 9010054
-2.1450615 0.35631374 0.76170367 12560268
-2.1432192 0.3575359 0.76221579 13087910
-2.146944 0.36169559 0.76070851 13419428
-2.14362 0.3625747 0.76172692 13680055
-2.1455026 0.36795658 0.76073182 13351093
-2.1425388 0.36727041 0.76174438 13350837
-3.3752112 0.37228754 0.76370722 8813188
-2.1444213 0.37265226 0.76074922 13285813
-3.3767645 0.38654986 0.76109248 8681861
-3.4040515 0.39784467 0.76461774 8813189
-3.4081481 0.40790963 0.76053411 8747134
-3.4023027 0.40933377 0.76474983 9009026
-3.4056168 0.41221407 0.76198334 9074815
-3.4351609 0.4310967 0.76455218 8681599
-3.4359496 0.43833816 0.76322454 8419196
-3.4333982 0.44267654 0.76468527 8222595
-1.5084394 1.0995461 0.76428735 196866
-0.90529698 0.29990077 0.7664215 11775671
-0.90789229 0.30305162 0.76750183 7571873
-1.6977522 0.30794767 0.76558566 13554134
-0.90598953 0.3062591 0.76525581 4544623
-0.90521574 0.31134292 0.76531428 787991
-3.3780882 0.31668371 0.76723611 9467780
-1.860387 0.32903308 0.76691228 15920374
-1.8565544 0.32996687 0.76967645 16249847
-1.8433855 0.32706475 0.76853144 16249077
-1.8578973 0.33326656 0.76833767 16513788
-1.8447217 0.33034763 0.76719952 16580088
-3.3771293 0.33521837 0.76605976 9010050
-1.8711262 0.33620974 0.76943392 16514814
-3.3753936 0.34662181 0.76619089 8944521
-2.1466799 0.35322928 0.76982832 12495757
-3.4026701 0.35761672 0.76975441 8682116
-3.3736577 0.35802534 0.76632196 8878467
-3.3711452 0.36229762 0.7677604 8878979
-3.3731782 0.36729255 0.76573384 8813703
-3.3686328 0.36656988 0.76919889 8879491
-3.3726988 0.37655994 0.76514572 8878725
-3.4007378 0.39496437 0.76738417 8682116
-3.3982062 0.39926872 0.7688334 8813187
-3.4015203 0.40214902 0.76606697 8878467
-3.3997715 0.41363811 0.76619905 8878210
-3.4327021 0.42240369 0.7672739 8746878
-3.4318206 0.42819363 0.76734048 8746879
-3.4313338 0.43760431 0.76674318 8485253
-3.4308469 0.44701496 0.76614594 8550538
-3.4282956 0.45135334 0.76760668 8878211
-3.4257441 0.45569181 0.76906741 8812668
-1.5050746 1.1017783 0.76522279 262401
-1.5044163 1.1046371 0.7652334 262658
-1.9301698 1.3616906 0.76847762 5254925
-0.90512592 0.30398265 0.77113992 9211805
-2.060488 0.30946845 0.77434212 14144186
-1.7053046 0.30823034 0.77048713 13281745
-3.37151 0.31096604 0.77272773 8944006
-2.0619254 0.31300005 0.77290928 14999750
-1.7386211 0.31385705 0.77243257 16710392
-1.728094 0.31431869 0.77022505 15855352
-2.0624745 0.31804192 0.77198493 15984610
-2.0592608 0.31753099 0.7744348 15853555
-1.7407082 0.31567109 0.7706902 16251638
-3.4020712 0.32457346 0.77357388 8813187
-1.8700948 0.32673976 0.77117008 15920112
-1.8376659 0.32845822 0.7726565 16318204
-3.402854 0.33175823 0.77225673 8878978
-1.8816944 0.33251011 0.77319306 16249330
-1.8706105 0.33147475 0.770302 16052470
-1.8689423 0.33431152 0.7712571 16383741
-1.8548946 0.33278918 0.77062666 16711162
-2.115344 0.33624429 0.77279586 12624272
-2.1365788 0.34260753 0.7738691 10453116
-2.1363642 0.34807995 0.77354938 13089710
-2.1325142 0.34663641 0.77490413 13613236
-3.3993561 0.35473642 0.7725209 8878724
-2.1422129 0.35219514 0.77135462 13285785
-2.1373839 0.3527337 0.77288669 13810866
-3.3966413 0.38489932 0.77146775 8747653
-3.3933272 0.38201895 0.77423429 8878469
-3.39411 0.38920376 0.77291703 8747907
-3.3974237 0.39208406 0.7701506 8616579
-3.4276919 0.41804913 0.77145636 8944256
-3.4251406 0.42238751 0.77291709 8812672
-3.4272051 0.42745978 0.77085912 8681089
-3.4225893 0.42672589 0.77437776 8746881
-3.423378 0.43396735 0.77305019 8681091
-3.4232855 0.44699875 0.77178913 8746628
-3.4224041 0.45278877 0.77185571 8746362
-3.4198527 0.45712715 0.77331644 8680821
-3.421917 0.46219942 0.77125847 8747127
-3.4173014 0.46146554 0.77477711 8680817
-3.4180901 0.468707 0.77344954 8746615
-3.4155388 0.47304541 0.77491027 8681080
-1.2425898 0.30785379 0.77684343 8620981
-1.2387849 0.30878082 0.77958763 13430526
-3.3979747 0.31450844 0.77765757 9205636
-2.0587118 0.31248909 0.77535915 15986134
-1.7500432 0.31344026 0.77521962 16449278
-1.7479448 0.31161651 0.77697128 16580349
-1.7318089 0.31203282 0.77770126 16187132
-1.2412218 0.31202793 0.77743816 6709401
-3.3954434 0.31881279 0.77910686 9009794
-1.7719493 0.31707644 0.77878422 16711420
-1.7590319 0.31569937 0.77829731 16252670
-3.3987575 0.32169315 0.77634031 9140866
-3.3978829 0.32743776 0.77640641 8878721
-2.1246667 0.33984971 0.77793908 12826800
-3.3965254 0.34251919 0.77587986 9075589
-2.1281545 0.34286603 0.77659029 13286310
-3.3960423 0.35185611 0.77528733 8878725
-3.3925447 0.3748343 0.7755515 8878727
-3.3892307 0.37195399 0.77831793 8878724
-3.3900135 0.37913865 0.77700073 8813190
-3.3866994 0.37625834 0.77976716 8813189
-3.3907959 0.38632339 0.77568358 8878723
-3.4194343 0.39775991 0.77968818 8747650
-3.4218931 0.40645295 0.77696645 8878465
-3.4176714 0.40933985 0.77982134 8812672
-3.4210117 0.41224298 0.77703297 8812673
-3.4218004 0.41948444 0.7757054 8747393
-3.453656 0.43416068 0.77672857 8681857
-3.4200377 0.43106431 0.77583849 8746626
-3.4510849 0.43853271 0.77820063 8616070
-3.4149351 0.43974108 0.7787599 8550018
-3.4485137 0.44290486 0.77967268 8681611
-3.4182751 0.44264415 0.77597159 8615809
-3.4518797 0.44583049 0.77686268 8616082
-3.4147499 0.46580395 0.77623785 8680821
-3.4121985 0.47014233 0.77769858 8681081
-1.4951129 1.1586834 0.7783252 131330
-1.4923826 1.1580514 0.77925801 131585
-1.4944489 1.1615673 0.77833593 131331
-0.87223482 0.25878564 0.78001308 1445660
-3.3913469 0.30874783 0.78319049 8878729
-1.7276347 0.30840468 0.78118598 16645886
-1.7103795 0.30707657 0.7841807 13893368
-1.6989377 0.30666572 0.78274453 10591964
-3.3888156 0.31305218 0.78463972 8813702
-3.3921297 0.31593248 0.78187329 8879236
-1.769022 0.31661105 0.78101575 16449276
-1.7831773 0.32265565 0.78110409 16711421
-1.7914332 0.32636768 0.78458017 16711422
-2.1393645 0.33469674 0.78216851 8476243
-2.1423571 0.33538958 0.78114599 7755604
-2.1409016 0.34171176 0.78116947 11114114
-2.1379089 0.34101889 0.78219199 11772297
-3.3826029 0.36619338 0.78385079 8944261
-3.3841681 0.38056278 0.78121644 8747653
-3.4160941 0.39485684 0.78247648 8878721
-3.4135427 0.39919522 0.78393722 9075071
-3.4168828 0.4020983 0.78114891 8878464
-3.4143314 0.4064368 0.78260964 8812670
-3.4117801 0.41077518 0.78407037 8812925
-3.4451478 0.43997923 0.78248268 8615557
-3.4115951 0.43683803 0.7815482 8551043
-3.4090436 0.4411765 0.78300893 8550531
-3.4055185 0.46433622 0.78327519 8681338
-3.4088585 0.46723926 0.78048688 8681337
-3.4372475 0.47936082 0.78435713 8680825
-1.1304625 0.011057163 0.78513998 986121
-0.678137 0.12222661 0.78654349 2693147
-1.0702057 0.27185702 0.78568149 9998443
-0.93205309 0.27723035 0.78785729 1054289
-3.3847191 0.30298722 0.78872335 8878985
-2.0587597 0.30483738 0.78862256 15984606
-2.0418193 0.30237147 0.78899503 15789300
-3.3880332 0.30586752 0.78595692 8878729
-1.7253228 0.30559933 0.78524363 14208731
-3.3855019 0.31017187 0.78740615 8813702
-3.3829703 0.31447634 0.78885543 8748164
-3.3837528 0.32166097 0.78753823 8813439
-3.382004 0.33315009 0.78767031 9141380
-1.8035414 0.33064386 0.78637642 16711422
-3.3794727 0.33745453 0.7891196 9337730
-3.413913 0.34706953 0.78898138 8812931
-3.381038 0.35182399 0.7864852 8878719
-3.3818204 0.35900864 0.78516799 8944513
-3.3785067 0.35612833 0.78793442 8813182
-3.3759751 0.36043277 0.78938371 8813187
-3.3800716 0.37049773 0.78530008 8944010
-3.4119654 0.38471231 0.78659236 8813188
-3.4094141 0.38905072 0.7880531 8878722
-3.4127541 0.39195377 0.78526479 9075329
-3.4068625 0.39338911 0.78951383 9009281
-3.4102027 0.39629218 0.78672552 9271936
-3.4109914 0.40353373 0.78539795 8943741
-3.4063754 0.40279984 0.78891659 8878718
-3.4427631 0.41808602 0.7864964 8747392
-3.4393971 0.41516039 0.78930634 8747648
-3.4401917 0.42245817 0.78796846 8747392
-3.4422722 0.42756981 0.78589451 8747137
-3.4376206 0.4268302 0.78944051 8747393
-3.4384155 0.43412799 0.78810263 8616067
-3.4417815 0.43705362 0.78529263 8615556
-3.4031522 0.44261184 0.78725797 8812932
-3.4022708 0.44840175 0.78732449 8681097
-3.4013896 0.45419168 0.78739107 8680067
-3.3988383 0.45853007 0.7888518 8811130
-3.4021783 0.46143314 0.78606349 8746618
-3.4305155 0.47350958 0.78997707 8681340
-3.4338815 0.47643521 0.78716713 8681851
-3.4329934 0.48227006 0.78723419 8549756
-1.5309918 1.1622688 0.78748149 262659
-1.7659551 1.3516307 0.78992343 4991759
-0.67696756 0.12314136 0.79308093 2891044
-0.67418206 0.12353158 0.79436821 2629677
-1.2553389 0.22160673 0.79250008 4456732
-1.2799188 0.25020728 0.79427576 7628413
-1.0714607 0.26852995 0.79183376 8483160
-2.0366189 0.29328707 0.79380214 16183776
-2.0517459 0.29874137 0.79447758 16117474
-2.0401073 0.29631898 0.7908901 16248545
-2.0710285 0.30226809 0.79375184 14144712
-2.0540838 0.30077338 0.79252595 16050401
-3.3821878 0.30729157 0.79017258 8878983
-3.380439 0.31878069 0.79030466 8748162
-3.4072328 0.34126341 0.79455799 9075331
-3.3769414 0.34175888 0.79056883 9075583
-2.1611896 0.34270814 0.79136425 9857886
-2.1604548 0.34589943 0.79137611 12361092
-3.4037075 0.36442322 0.79482424 8878984
-3.4078364 0.37456781 0.7907083 8878469
-3.4052851 0.37890619 0.79216897 8813190
-3.4060738 0.38614765 0.7908414 8747909
-3.4035225 0.39048603 0.79230213 8747399
-3.4326649 0.40930921 0.79492623 8812667
-3.3999972 0.41364583 0.79256839 8616835
-3.4368258 0.41953254 0.79077846 8747648
-3.4324784 0.4355745 0.79238462 8616321
-3.4299071 0.43994656 0.79385668 8682114
-3.399812 0.43970871 0.79004633 8747904
-3.3972607 0.44404709 0.79150701 8681344
-3.4271495 0.47058395 0.79278708 8746877
-3.4245782 0.47495601 0.79425907 8680833
-3.4279444 0.47788161 0.79144913 8680575
-3.4274535 0.48736548 0.7908473 8615814
-3.4235969 0.49392357 0.79305536 8746884
-1.5342995 1.168726 0.79332399 459267
-1.5336237 1.1716608 0.7933349 655875
-1.5172749 1.1775571 0.79085433 328193
-1.5080675 1.177477 0.79385424 262404
-1.5168389 1.1815592 0.79071134 459522
-1.5090145 1.1817994 0.7932387 262406
-1.5135374 1.1874626 0.79136491 459271
-1.7633879 1.3494105 0.79091632 4991249
-1.7783587 1.3530738 0.79421878 5254417
-1.7626771 1.3524976 0.79092777 4991502
-1.7772872 1.3577271 0.79423606 5253647
-1.9291633 1.3780841 0.79314417 5582352
-0.67789453 0.12552668 0.79515028 2497306
-0.70061356 0.23460153 0.79827982 2300447
-0.73751158 0.24394542 0.79931712 1181459
-1.2870153 0.2478399 0.79846025 4005691
-1.27739 0.24962179 0.79513985 9332574
-1.291168 0.25303957 0.79673976 2100772
-1.2876674 0.25081638 0.79803634 3942680
-1.0736092 0.26554552 0.79661715 8743493
-2.0308051 0.28823394 0.79865551 16051423
-2.0331306 0.29025519 0.79671419 16118240
-3.4058406 0.30071762 0.79973525 8944521
-3.37556 0.30153096 0.7957055 8944521
-2.0677786 0.30175138 0.79622924 15064790
-3.404078 0.31229758 0.7998684 8813446
-2.0974267 0.31832832 0.79697144 13484474
-3.4056554 0.3267805 0.7972132 8878720
-3.4031041 0.33111888 0.79867387 8944770
-3.3703136 0.33599827 0.79610175 8617346
-2.1753094 0.34389555 0.79617345 8868937
-2.1722722 0.34319234 0.79721129 9331521
-3.4034057 0.34777105 0.79674911 8878719
-2.1730523 0.34675223 0.79670429 10912617
-3.3995788 0.35427868 0.79894018 8813180
-3.4011562 0.3687616 0.79628497 8944271
-3.4001825 0.38758299 0.79509044 8813964
-3.3942909 0.38901842 0.79933947 8813700
-3.428504 0.39908591 0.79907417 8812929
-3.4221935 0.45306289 0.79827285 8745857
-3.4196224 0.45743492 0.7997449 8876412
-3.4204173 0.46473271 0.79840702 8876672
-3.4237833 0.46765831 0.79559702 8812158
-3.4178462 0.46910474 0.79987907 8746374
-3.4212122 0.47203037 0.79706907 8681347
-1.5011637 1.1399764 0.79876775 197123
-1.5039297 1.1406168 0.79782271 196869
-1.5163779 1.1872461 0.79783416 328199
-1.5205582 1.1902747 0.79625922 656389
-1.5198824 1.1932095 0.79627013 787461
-1.5143256 1.191923 0.79816878 393736
-1.7378353 1.3467462 0.79941559 5255185
-1.772485 1.351714 0.79622567 5058317
-1.7743504 1.3570472 0.79523957 4991759
-0.96867865 -0.10561709 0.80318916 263170
-0.9596504 -0.10167383 0.80057466 328962
-1.230942 0.12275273 0.80114436 460299
-1.2303344 0.12539142 0.80115414 394507
-1.2284778 0.12774095 0.80159074 394505
-1.2291193 0.1306688 0.80117375 197125
-1.2207136 0.13289179 0.80374908 1442050
-1.2182155 0.13231343 0.80460262 1245458
-0.70407677 0.22994111 0.80170107 1511706
-0.742293 0.24451545 0.80214822 1901057
-0.74538743 0.24648069 0.80100214 3080449
-1.0745472 0.26226091 0.80181563 8480876
-3.4025004 0.29781449 0.80252361 8878984
-3.3689322 0.29577029 0.80123842 8879492
-3.4020135 0.30722529 0.80192626 8944519
-2.0960002 0.3124325 0.80037135 16051672
-3.4015265 0.31663597 0.80132908 8813445
-3.4023154 0.32387742 0.8000015 8813699
-1.8943292 0.32942194 0.80489403 15132646
-3.4005527 0.3354573 0.8001346 9075584
-3.3980014 0.33979568 0.80159533 8813439
-3.3954499 0.34413418 0.80305606 8616313
-3.3987901 0.34703723 0.80026776 8813435
-3.3962386 0.35137564 0.80172843 8748151
-3.3970275 0.3586171 0.80040085 8747134
-3.3936872 0.35571402 0.80318916 8747642
-3.3944759 0.36295548 0.80186158 8878208
-3.3919246 0.36729386 0.80332226 9009025
-3.3927135 0.37453532 0.80199468 9009283
-3.3893733 0.37163228 0.80478299 8812419
-3.390162 0.37887374 0.80345541 8878464
-3.3935022 0.38177678 0.80066711 8879229
-3.421772 0.39323467 0.80469412 8682129
-3.425138 0.3961603 0.80188411 8616073
-3.4180329 0.44283956 0.80242068 8681598
-3.4154615 0.44721168 0.80389273 8616061
-3.417542 0.45232326 0.80181885 8680574
-3.4136853 0.45888144 0.80402696 8811903
-3.4170513 0.46180707 0.80121696 9007999
-3.4144802 0.4661791 0.80268902 8811651
-3.4127038 0.47784904 0.80282319 8550272
-3.4509232 0.48436728 0.80143362 8681090
-3.4475298 0.48141783 0.80426645 8615298
-3.4160697 0.48077464 0.80001324 8484737
-3.4483311 0.48877493 0.80291766 8747142
-3.4457388 0.49318272 0.8044017 8878209
-3.4465404 0.50053984 0.8030529 8681600
-3.4439483 0.50494748 0.80453694 8615553
-1.0267895 -0.083682485 0.80929023 66049
-1.0266186 -0.079319239 0.80903536 66050
-1.2278402 0.12871042 0.80805284 721925
-1.2272301 0.13136044 0.80806267 1507585
-1.2129155 0.13247608 0.80631465 8344394
-1.4037017 0.21988626 0.80697989 8943743
-1.4059987 0.22187278 0.80609155 8552577
-0.7477445 0.24764593 0.80542243 4523541
-3.3974903 0.29345989 0.80670607 8813961
-3.3966091 0.29924983 0.80677259 8945030
-1.3710537 0.30398476 0.80983043 7162204
-2.0956454 0.30763829 0.80674291 12627097
-3.3887696 0.33832803 0.80863267 8552579
-3.3921099 0.34123111 0.80584437 8420478
-3.386822 0.37597066 0.80624372 8681859
-3.4117913 0.42750454 0.80864251 8746884
-3.4138718 0.43261626 0.80656862 8681600
-3.4129837 0.43845111 0.80663562 8485244
-3.4128904 0.45158374 0.80536479 8616060
-3.4103193 0.45595589 0.80683684 8681597
-3.4111142 0.4632535 0.80549902 8681344
-3.4424396 0.47699368 0.80851579 8550274
-3.4449377 0.48582551 0.80575049 8615299
-3.4423454 0.49023327 0.80723459 8680831
-3.4431467 0.49759039 0.80588573 8747133
-3.4413559 0.50935525 0.80602098 8550275
-3.4379625 0.50640583 0.80885386 8550273
-3.4387639 0.51376301 0.80750507 8549503
-3.4361718 0.51817071 0.80898911 8615804
-1.5083678 1.1623055 0.80980223 131585
-1.507689 1.1652539 0.8098132 131585
-1.5162147 1.1920725 0.80513227 262408
-1.5130839 1.1929004 0.80609149 262404
-1.5155358 1.1950209 0.80514324 262406
-1.8923908 1.3673297 0.80586785 4795661
-1.8898869 1.3689909 0.80656391 5188878
-1.0286462 -0.07826966 0.8135711 131586
-1.0244915 -0.076579891 0.81480193 131586
-1.3209558 0.26763725 0.81186092 1907266
-1.3182349 0.26527235 0.81413227 3285052
-3.3924801 0.2891053 0.81088853 8683396
-3.3891401 0.28620225 0.81367683 8682623
-3.3899288 0.29344371 0.8123492 8814462
-2.1013348 0.29859817 0.8139677 6704212
-2.1006 0.30178946 0.81397957 9861213
-2.0998652 0.30498075 0.81399143 13018762
-1.3684937 0.30357775 0.81178194 10065828
-1.3696387 0.30639094 0.81064057 9272702
-3.3820894 0.33252186 0.81420934 9010309
-3.3854296 0.33542499 0.81142098 8748420
-3.380327 0.34410176 0.81434238 8813698
-3.4170029 0.34944832 0.81272155 8682611
-3.4144316 0.35382044 0.81419361 8748407
-3.4152265 0.36111823 0.81285572 8747390
-3.4126554 0.36549026 0.81432772 8812416
-3.4116738 0.38445786 0.81312394 8813181
-3.41504 0.38738349 0.810314 8813175
-3.4091027 0.38882989 0.814596 8747395
-3.4124687 0.39175552 0.81178606 8747388
-3.4098976 0.39612767 0.81325811 8812930
-3.4081211 0.40779743 0.81339228 9075072
-3.408916 0.41509518 0.8120544 8877954
-3.4097109 0.42239287 0.81071645 8877445
-3.4071398 0.42676499 0.81218857 8943490
-3.4373493 0.4725695 0.812765 8615809
-3.431977 0.50786412 0.81317073 8484990
-3.4353704 0.51081353 0.8103379 8550270
-3.4293849 0.51227182 0.81465483 8484989
-3.4327784 0.51522124 0.81182194 8550268
-3.4335797 0.52257842 0.81047314 8616315
-3.4309876 0.52698612 0.81195718 8484987
-3.4258034 0.53580153 0.81492531 8483966
-1.6265888 1.3076911 0.81392008 5253646
-1.6258881 1.3107343 0.81393141 5188109
-1.7635057 1.3626968 0.81417346 5189136
-1.0306784 -0.077199191 0.81810391 131586
-1.0282861 -0.077753037 0.81892133 131586
-1.0300965 -0.074672282 0.81811333 131586
-0.65824044 0.10326265 0.81609213 4012340
-0.65905243 0.10525765 0.8152827 3881014
-1.4132295 0.22811659 0.81594318 8416886
-1.3164209 0.26369575 0.81564659 3087930
-1.0515319 0.27027148 0.81757116 8794956
-3.3857999 0.28329918 0.81646514 8748418
-3.3832486 0.28763756 0.81792581 8814206
-3.3865888 0.29054064 0.81513751 8813944
-2.0968029 0.29754895 0.81551611 8606805
-2.0972114 0.30268565 0.81501782 12164479
-3.3779607 0.32237723 0.81832522 8945028
-3.3813009 0.32528028 0.81553692 9141892
-3.3754094 0.32671571 0.81978595 8945285
-3.4102707 0.34359705 0.81834149 8682624
-3.4136367 0.34652269 0.81553149 8617081
-3.4110656 0.35089484 0.81700355 8813691
-3.4118605 0.35819259 0.81566566 8812924
-3.4049418 0.37860662 0.81874394 8550785
-3.4083078 0.38153222 0.81593394 8681859
-3.4057367 0.38590428 0.817406 8682634
-3.4065316 0.39320204 0.81606805 8747146
-3.4333427 0.43578357 0.81950909 8616060
-3.434144 0.44314077 0.8181603 8354426
-3.4375374 0.44609022 0.81532747 8485756
-3.4336491 0.45270178 0.81755352 8551291
-3.4331546 0.46226278 0.81694674 8616574
-3.4322591 0.46814525 0.81701434 8550783
-3.4646442 0.50413197 0.81546742 8615807
-3.42519 0.50196522 0.81883645 8483711
-1.5058478 1.1549636 0.81852186 197122
-1.5107735 1.1592236 0.81661683 262401
-1.5083106 1.1570936 0.81756938 196866
-1.5100917 1.1621852 0.81662786 197121
-1.5072877 1.1615361 0.81758589 197122
-1.5087278 1.1681085 0.81664991 131585
-1.7064452 1.3429598 0.81832463 5451288
-1.7035084 1.3422798 0.81932807 5647120
-1.7586595 1.3566288 0.8161813 5123857
-1.760542 1.3620106 0.81518608 5320719
-1.7575784 1.3613245 0.81619871 5255182
-1.0291133 -0.076941535 0.82386428 131586
-1.0285294 -0.074405216 0.82387376 131586
-1.3986571 0.21300957 0.82175708 9735049
-1.415148 0.23305506 0.82150245 7365234
-1.3201885 0.25991401 0.82073247 2835284
-1.3183671 0.25833094 0.82225293 2374999
-1.3178866 0.2614882 0.82228923 2297903
-3.3782387 0.283283 0.82210827 8814212
-3.377357 0.28907299 0.82217485 8879746
-3.374017 0.28616995 0.82496315 8944769
-3.3748057 0.2934114 0.82363558 8878976
-2.1082811 0.29458439 0.82147986 7229254
-2.1022065 0.29317796 0.82355547 7947823
-3.3763833 0.30789432 0.82098037 9010044
-3.373832 0.3122327 0.8224411 8879232
-3.4104574 0.31733188 0.8208831 8944009
-3.3729506 0.31802261 0.82250768 8748164
-3.407886 0.32170403 0.82235521 8944519
-3.3720691 0.32381266 0.82257426 8617350
-3.4035387 0.33774588 0.82396138 8944774
-3.4069047 0.34067151 0.82115138 8748163
-3.4327295 0.40194723 0.82342023 8944001
-3.4301374 0.4063549 0.82490426 8878208
-3.4309385 0.41371211 0.82355547 8943489
-3.43174 0.42106923 0.82220668 8877956
-3.4291477 0.425477 0.82369077 8877955
-3.4219847 0.47253653 0.82423174 8811650
-3.4235873 0.48725075 0.8215341 8615550
-3.4226918 0.49313331 0.82160175 8549760
-3.4217966 0.49901575 0.82166928 8550017
-3.4184031 0.49606624 0.82450223 8548995
-3.4192045 0.50342345 0.82315338 8484482
-3.4525814 0.5070709 0.82416719 8418686
-3.4225979 0.50637293 0.82032049 8484479
-3.4507771 0.51892573 0.82430345 8485243
-3.4541965 0.52189767 0.82144898 8550779
-3.4515843 0.52633905 0.8229444 8484986
-3.4523919 0.5337525 0.82158524 8419196
-3.4489725 0.53078049 0.82443976 8484474
-3.4471681 0.54263526 0.82457602 8549246
-1.5086377 1.162868 0.82442975 131586
-1.5118349 1.1683084 0.82300293 131585
-1.5097417 1.1709572 0.82349509 197121
-1.5083718 1.1769069 0.8235172 196867
-1.6676936 1.3305073 0.82338107 4008460
-1.7005715 1.3415999 0.82033151 5319689
-0.95956337 -0.084795199 0.82575083 263171
-1.3614786 0.20580178 0.82803679 3618870
-1.3967336 0.21209981 0.82898188 13687245
-1.3945392 0.21355554 0.82959193 13161448
-1.4194089 0.22953255 0.82774514 7889777
-1.4217455 0.23155332 0.82684147 7167323
-1.3222635 0.2545149 0.82749683 3486546
-2.0292525 0.27057433 0.8281551 15984611
-3.3698881 0.27602527 0.82907909 9207173
-3.3706768 0.28326681 0.82775152 9206657
-3.3681254 0.2876052 0.82921225 9075325
-2.0855012 0.2893104 0.82926321 11906441
-3.3714657 0.29050833 0.82642388 8944510
-3.3689144 0.29484671 0.82788461 9009793
-2.0976505 0.2921232 0.8251121 8671056
-2.0930943 0.2910684 0.82666874 10056825
-3.4062963 0.30710858 0.82503104 9468544
-3.4037251 0.31148061 0.82650304 9141119
-3.3679404 0.31366804 0.82669014 8878469
-3.3646004 0.31076497 0.82947844 8944007
-3.401154 0.31585276 0.82797515 8878977
-3.3653891 0.31800652 0.82815087 8878983
-3.3687291 0.32090959 0.82536256 8748424
-3.4014583 0.33263421 0.82603532 9206661
-3.3931606 0.36836696 0.82857883 8878722
-3.3922725 0.37420177 0.82864588 8747397
-3.3956385 0.37712741 0.82583588 8812673
-3.4277332 0.38428345 0.8289507 8681604
-3.4285345 0.39164066 0.82760191 8681618
-3.427639 0.39752305 0.8276695 8681865
-3.4283464 0.41811979 0.82503951 8877955
-3.4177899 0.46222988 0.82841337 8615824
-3.4151978 0.46663764 0.82989746 8680842
-3.4493515 0.47741735 0.82960367 8943231
-3.4501591 0.48483062 0.82824457 8681083
-3.4168005 0.48135188 0.82719982 8746880
-3.4499695 0.51151234 0.82566255 8419454
-3.4473577 0.51595372 0.82715797 8484732
-3.4481652 0.52336711 0.82579881 8484729
-3.4447458 0.5203951 0.82865334 8484475
-3.4455531 0.52780855 0.82729423 8484215
-3.4463606 0.53522187 0.82593518 8550010
-1.5061638 1.1607286 0.82538646 197122
-1.5157003 1.1780983 0.82842696 196865
-1.5128715 1.1774434 0.82939351 196866
-1.5150124 1.1810863 0.8284381 196866
-1.5114955 1.1834195 0.82941574 197122
-1.5303566 1.2125709 0.82858545 262404
-1.5271697 1.2134137 0.82956183 262403
-1.5296656 1.2155722 0.82859659 262404
-1.998522 1.3321807 0.82781762 5386521
-1.0754162 -0.10235794 0.83380216 131585
-1.0726788 -0.10163401 0.83464086 66049
-1.0252138 -0.039241277 0.83404315 131585
-1.0237091 -0.038242955 0.83446145 131585
-1.1516742 0.0099029662 0.83495224 459524
-1.389888 0.20953307 0.83139074 8268339
-1.3922136 0.21154431 0.8304913 12817541
-1.3892441 0.21232963 0.83140117 7546910
-2.0513606 0.26685998 0.83247763 8741727
-2.0269008 0.26853031 0.8301183 16050660
-2.024549 0.26648629 0.83208156 16051940
-3.3632081 0.27021912 0.8346557 8747396
-3.3971798 0.27936417 0.83466464 9076102
-2.0721612 0.27777371 0.83442229 10517626
-3.3673368 0.28036374 0.83053982 9468803
-2.0828331 0.28700304 0.83029503 11836291
-3.3961983 0.29833177 0.83346087 8944513
-3.3995643 0.30125731 0.83065099 8878719
-3.3936272 0.3027038 0.83493292 9009795
-3.3969932 0.30562937 0.83212298 8878975
-3.3612602 0.30786189 0.83226675 9075333
-3.3944221 0.31000152 0.8335951 8944258
-3.3906829 0.35960639 0.83132166 8813955
-3.3881116 0.36397853 0.83279371 8747650
-3.3889065 0.3712762 0.83145577 8747392
-3.4243398 0.38133401 0.83178353 8746878
-3.4251411 0.38869122 0.83043474 8681607
-3.4217477 0.38574177 0.83326763 8747133
-3.4126058 0.47104532 0.8313815 8746117
-3.4433203 0.47888666 0.83395356 8811905
-3.4100137 0.47545299 0.83286554 8812162
-3.4467397 0.48185867 0.83109903 8812158
-3.4441278 0.48630008 0.83259439 8746623
-3.4415159 0.49074152 0.83408982 8680320
-3.4397113 0.50259632 0.83422613 8550021
-3.4422286 0.51149571 0.83143973 8484478
-3.437907 0.51445109 0.83436239 8352891
-3.4413264 0.51742309 0.83150786 8418942
-3.4387143 0.52186453 0.83300328 8353407
-1.5110745 1.1723063 0.83034343 262657
-1.5100425 1.1767883 0.83036011 262657
-1.5093546 1.1797764 0.8303712 197122
-1.5086665 1.1827645 0.83038235 131586
-1.5223188 1.2128175 0.83118176 262404
-1.5370572 1.2205251 0.83448279 459269
-1.5058613 1.2669643 0.83268076 1049348
-0.51078385 -0.35999849 0.83939999 7627389
-1.0764385 -0.10162238 0.83889794 131585
-1.069348 -0.098332226 0.83548909 131330
-1.0235763 -0.038799524 0.83981401 131841
-1.3973365 0.20370542 0.83676082 11042912
-1.3946764 0.20308957 0.83766973 8082729
-1.2935697 0.20466988 0.83872032 2960952
-1.3966895 0.20651521 0.83677125 12302734
-1.3940295 0.20589934 0.83768016 8211784
-1.292184 0.20702597 0.8395136 3026480
-0.79950875 0.21836415 0.83839869 3091774
-1.4309726 0.22952975 0.83663225 6773598
-1.9819686 0.24578735 0.83942419 16382184
-2.0151422 0.25831017 0.83993447 16249321
-2.0664556 0.27476317 0.83649188 11768182
-3.3910561 0.30707595 0.83640498 9074821
-3.3823609 0.3391597 0.83961743 9140864
-3.3865218 0.34938312 0.83546954 8879509
-3.4183543 0.38279232 0.83610046 8813186
-3.4102015 0.44897386 0.83542788 8943230
-3.4068081 0.44602442 0.83826077 8812412
-3.4076095 0.45338154 0.83691192 8682112
-3.4408979 0.45664647 0.83803093 8615812
-3.4382858 0.46108791 0.83952636 8616328
-3.4425128 0.47147334 0.83531266 8746118
-3.4399009 0.47591466 0.83680803 8745859
-3.4380965 0.48776951 0.83694434 8681088
-3.4354844 0.49221092 0.8384397 8615550
-3.4375978 0.49740362 0.83633292 8615552
-3.4328725 0.49665233 0.83993512 8616061
-3.4352949 0.51889253 0.83585781 8287869
-3.4685583 0.52736753 0.83921778 8484219
-3.4693725 0.53484315 0.83784717 8549750
-3.4667387 0.53932178 0.83935511 8614777
-3.4701869 0.54231864 0.83647668 8680315
-3.4710011 0.54979414 0.83510619 8810622
-1.514613 1.1899583 0.83531427 131586
-1.5438101 1.2248558 0.8393563 656390
-1.5424149 1.2309158 0.83937883 1116683
-1.5166807 1.2698268 0.83760101 1772291
-1.5138247 1.2691655 0.83857679 1246725
-1.5159862 1.2728435 0.83761221 1705987
-1.5131301 1.2721823 0.838588 1378309
-1.5095794 1.2745379 0.83957505 1049349
-1.5152916 1.2758603 0.83762342 1639940
-1.5129246 1.2774307 0.83828145 1442821
-1.5088849 1.2775546 0.83958632 1114884
-1.6974226 1.324316 0.8383947 5254158
-1.0703473 -0.09758129 0.84059125 131330
-1.0675995 -0.096854627 0.84143317 131330
-1.1519611 0.010656847 0.84112906 393731
-1.2917557 0.20309328 0.84023458 3027253
-1.4050399 0.20703685 0.8403424 10844312
-1.4023691 0.20641851 0.84125495 11580885
-1.4318839 0.22218266 0.84423637 7300969
-1.4352698 0.22596392 0.84286624 6708064
-1.4325758 0.2253402 0.84378678 7560024
-1.9620211 0.23160282 0.84323633 15132379
-1.9784803 0.24275544 0.84233618 16447720
-2.0104387 0.25422215 0.84386086 16380647
-2.0511863 0.25771084 0.84267086 5899292
-2.0481489 0.25700766 0.84370863 4850466
-2.0127904 0.25626618 0.84189767 16314600
-3.3904476 0.27351293 0.84028459 8944261
-3.3845105 0.27495944 0.84456664 8616324
-3.3878765 0.27788508 0.84175664 9010309
-3.3789949 0.33623409 0.84242743 9271939
-3.4151487 0.3533636 0.84149575 8813964
-3.4125566 0.35777128 0.84297979 8748425
-3.4099646 0.36217904 0.84446383 8681605
-3.4107659 0.36953616 0.84311503 8681852
-3.4017181 0.44160026 0.84250998 8682112
-3.4374785 0.45367453 0.8408854 8746625
-3.4348667 0.45811597 0.84238082 8616065
-3.435674 0.46552932 0.84102172 8681091
-3.4294531 0.49368033 0.84278965 8616317
-3.4634819 0.50941968 0.84483719 8551039
-3.4310682 0.50850713 0.84007138 8747130
-3.4624765 0.5288493 0.84360409 8418688
-3.4659245 0.53184617 0.84072566 8484219
-3.4632907 0.5363248 0.8422336 8549758
-1.5162148 1.1934566 0.8431868 131586
-1.540244 1.2272217 0.84034771 656133
-1.5343139 1.2529767 0.84044349 1509903
-1.5332675 1.2575217 0.84046036 2164738
-1.5297012 1.2598876 0.8414517 2033672
-1.5325699 1.2605517 0.84047163 2622467
-1.522259 1.2725265 0.84297264 1968899
-1.5226469 1.2774035 0.84249943 1837570
-1.5273376 1.2832768 0.84055614 2165252
-1.5230346 1.2822806 0.84202629 2164227
-1.6329435 1.3128729 0.84436822 5385222
-2.0214949 1.3179052 0.84054458 5648906
-1.6351662 1.316655 0.84337628 5319697
-1.070616 -0.10510153 0.84630877 65794
-1.0715464 -0.10351834 0.8458935 65794
-1.1305678 -0.0054612109 0.84923303 197122
-1.1497149 -0.00043569313 0.84918326 393988
-1.1531882 0.0017702881 0.8478967 393988
-1.1491021 0.0022260589 0.84919316 328454
-1.1522691 0.0057628872 0.8479116 328453
-0.87296212 0.20833932 0.84907484 9009266
-0.87178761 0.2116162 0.84922367 9139819
-3.3803496 0.26473612 0.84871447 9009795
-3.3837156 0.26766169 0.84590453 8878467
-3.3756289 0.33330852 0.84523731 9075847
-3.372263 0.33038288 0.84804732 8944517
-3.4049685 0.34451526 0.8499943 9009796
-3.4083619 0.34746471 0.84716141 9010828
-3.4074664 0.35334712 0.847229 8944780
-3.3932345 0.43422663 0.84959215 8551047
-3.3966279 0.43717608 0.84675932 8485252
-3.4280279 0.45217195 0.84808981 8682111
-3.4226143 0.48773631 0.8484987 8681598
-3.4260337 0.49070832 0.84564418 8681597
-3.4200025 0.49217775 0.84999406 8681598
-3.4234219 0.49514976 0.84713954 8616056
-3.4600337 0.50642276 0.84771568 8616061
-3.4608481 0.51389825 0.84634507 8550265
-3.4582143 0.51837689 0.847853 8550012
-3.4555805 0.52285552 0.84936094 8549759
-3.4590285 0.52585238 0.84648252 8353151
-3.4598427 0.53332794 0.84511203 8484228
-3.4928308 0.54937375 0.84665293 9007997
-3.4893553 0.54635298 0.8495543 8811388
-3.490176 0.55388802 0.84817284 9400958
-3.4936514 0.55690873 0.84527159 9006975
-3.4875212 0.55840224 0.84969276 8942207
-3.4909966 0.56142294 0.84679151 8744833
-3.4883418 0.56593722 0.84831142 8548480
-3.485687 0.57045144 0.84983134 8417920
-1.5213252 1.1781604 0.84999108 197123
-1.4155487 1.2321861 0.84976971 2887173
-1.5456049 1.2376548 0.84523952 1118477
-1.5278528 1.2752157 0.8483398 2429441
-2.0326941 1.2972728 0.8478564 5975817
-1.147195 -0.0010190965 0.85004425 393988
-1.1465821 0.0016426555 0.85005414 262917
-1.2969614 0.18944362 0.85301608 794247
-1.2972494 0.19208722 0.85253143 1320007
-1.2941673 0.19419499 0.85461581 2630423
-0.78719354 0.19748177 0.85497612 393992
-0.78753746 0.20063949 0.85439724 525065
-3.3736174 0.25888488 0.85433441 9010305
-3.3769836 0.26181048 0.85152441 9010052
-3.368897 0.32745728 0.85085726 8944515
-3.4015751 0.34156582 0.85282713 9009799
-3.3890395 0.42391992 0.85377383 8681589
-3.3924332 0.42686942 0.85094094 8747904
-3.3898408 0.43127719 0.85242498 8681856
-3.4228988 0.44771394 0.85237157 8682113
-3.4191949 0.4847644 0.85135317 8681344
-3.4165831 0.48920581 0.85284853 8681605
-3.4565856 0.50342584 0.85059404 8616060
-3.4518209 0.50266826 0.85422647 8615544
-3.4539518 0.50790441 0.85210198 8681083
-3.451318 0.51238304 0.85360992 8746363
-3.4534492 0.51761925 0.85148549 8812156
-3.4529467 0.52733415 0.85086888 8483969
-3.4503129 0.53181279 0.85237676 8418435
-3.447679 0.53629142 0.8538847 8287361
-3.4858799 0.54333228 0.85245556 8615298
-3.4832251 0.5478465 0.85397547 8680575
-3.4867005 0.5508672 0.85107422 9007996
-3.4848664 0.56291652 0.85121268 8548735
-3.4822116 0.56743073 0.8527326 8352128
-3.4830325 0.57496566 0.8513512 8352900
-3.4803777 0.57947987 0.85287112 8418184
-3.4777229 0.58399415 0.85439104 8483717
-1.4234967 1.2291409 0.85477942 1837316
-1.4228088 1.232129 0.85479057 2034439
-1.4127322 1.231534 0.85073197 2099459
-1.5531521 1.2372435 0.85124618 985611
-1.4217768 1.2366111 0.8548072 2691336
-1.5529436 1.2425642 0.85093534 986895
-1.5493439 1.2449522 0.85193598 1118477
